NCOLS 129
NROWS 52
XLLCORNER -27000
YLLCORNER 2233676.27906
CELLSIZE 2195.348837
NODATA_VALUE NaN
-3.4796718562 -3.4796718562 -3.4796718562 -3.4796718562 -3.4796718562 -3.4796718562 -3.4796718562 -3.4796718562 -3.4796718562 -3.4796718562 -3.4796718562 -3.4796718562 -3.4796718562 -3.4796718562 -3.4796718562 -3.4796718562 -3.4796718562 -3.4796718562 -3.4796718562 -3.4796718562 -3.4796718562 -3.4796718562 -3.4796718562 -3.4796718562 -3.4796718562 -3.4796718562 -3.4796718562 -3.4796718562 -3.4796718562 -3.4796718562 -3.4796718562 -3.4796718562 -3.4796718562 -3.4796718562 -3.4796718562 -3.4796718562 -3.4796718562 -3.4796718562 -3.4796718562 -3.4796718562 -3.4796718562 -3.4796718562 -3.4796718562 -3.4796718562 -3.4796718562 -3.4796718562 -3.4796718562 -3.4796718562 -3.4796718562 -3.4796718562 -3.4796718562 -3.4796718562 -3.4796718562 -3.4796718562 -3.4796718562 -3.4796718562 -3.4796718562 -3.4796718562 -3.4796718562 -3.4796718562 -3.4796718562 -3.4796718562 -3.4796718562 -3.4796718562 -3.4796718562 -3.4796718562 -3.4796718562 -3.4796718562 -3.4796718562 -3.4796718562 -3.4796718562 -3.4796718562 -3.4796718562 -3.4796718562 -3.4796718562 -3.4796718562 -3.4796718562 -3.4796718562 -3.4796718562 -3.4796718562 -3.4796718562 -3.4796718562 -3.4796718562 -3.4796718562 -3.4796718562 -3.4796718562 -3.4796718562 -3.4796718562 -3.4796718562 -3.4796718562 -3.4796718562 -3.4796718562 -3.4796718562 -3.4796718562 -3.4796718562 -3.4796718562 -3.4796718562 -3.4796718562 -3.4796718562 -3.4796718562 -3.4796718562 -3.4796718562 -3.4796718562 -3.4796718562 -3.4796718562 -3.4796718562 -3.4796718562 -3.4796718562 -3.4796718562 -3.4796718562 -3.4796718562 -3.4796718562 -3.4796718562 -3.4796718562 -3.4796718562 -3.4796718562 -3.4796718562 -3.4796718562 -3.4796718562 -3.4796718562 -3.4796718562 -3.4796718562 -3.4796718562 -3.4796718562 -3.4796718562 -3.4796718562 -3.4796718562 -3.4796718562 -3.4796718562
-3.4796718562 -3.4796718562 -3.4796718562 -3.4796718562 -3.4796718562 -3.4796718562 -3.4796718562 -3.4796718562 -3.4796718562 -3.4796718562 -3.4796718562 -3.4796718562 -3.4796718562 -3.4796718562 -3.4796718562 -3.4796718562 -3.4796718562 -3.4796718562 -3.4796718562 -3.4796718562 -3.4796718562 -3.4796718562 -3.4796718562 -3.4796718562 -3.4796718562 -3.4796718562 -3.4796718562 -3.4796718562 -3.4796718562 -3.4796718562 -3.4796718562 -3.4796718562 -3.4796718562 -3.4796718562 -3.4796718562 -3.4796718562 -3.4796718562 -3.4796718562 -3.4796718562 -3.4796718562 -3.4796718562 -3.4796718562 -3.4796718562 -3.4796718562 -3.4796718562 -3.4796718562 -3.4796718562 -3.4796718562 -3.4796718562 -3.4796718562 -3.4796718562 -3.4796718562 -3.4796718562 -3.4796718562 -3.4796718562 -3.4796718562 -3.4796718562 -3.4796718562 -3.4796718562 -3.4796718562 -3.4796718562 -3.4796718562 -3.4796718562 -3.4796718562 -3.4796718562 -3.4796718562 -3.4796718562 -3.4796718562 -3.4796718562 -3.4796718562 -3.4796718562 -3.4796718562 -3.4796718562 -3.4796718562 -3.4796718562 -3.4796718562 -3.4796718562 -3.4796718562 -3.4796718562 -3.4796718562 -3.4796718562 -3.4796718562 -3.4796718562 -3.4796718562 -3.4796718562 -3.4796718562 -3.4796718562 -3.4796718562 -3.4796718562 -3.4796718562 -3.4796718562 -3.4796718562 -3.4796718562 -3.4796718562 -3.4796718562 -3.4796718562 -3.4796718562 -3.4796718562 -3.4796718562 -3.4796718562 -3.4796718562 -3.4796718562 -3.4796718562 -3.4796718562 -3.4796718562 -3.4796718562 -3.4796718562 -3.4796718562 -3.4796718562 -3.4796718562 -3.4796718562 -3.4796718562 -3.4796718562 -3.4796718562 -3.4796718562 -3.4796718562 -3.4796718562 -3.4796718562 -3.4796718562 -3.4796718562 -3.4796718562 -3.4796718562 -3.4796718562 -3.4796718562 -3.4796718562 -3.4796718562 -3.4796718562 -3.4796718562 -3.4796718562
-3.4636743289 -3.4796718562 -3.4796718562 -3.4796718562 -3.4796718562 -3.4796718562 -3.4796718562 -3.4796718562 -3.4796718562 -3.4796718562 -3.4796718562 -3.4796718562 -3.4796718562 -3.4796718562 -3.4796718562 -3.4796718562 -3.4796718562 -3.4796718562 -3.4796718562 -3.4796718562 -3.4796718562 -3.4796718562 -3.4796718562 -3.4796718562 -3.4796718562 -3.4796718562 -3.4796718562 -3.4796718562 -3.4796718562 -3.4796718562 -3.4796718562 -3.4796718562 -3.4796718562 -3.4796718562 -3.4796718562 -3.4796718562 -3.4796718562 -3.4796718562 -3.4796718562 -3.4796718562 -3.4796718562 -3.4796718562 -3.4796718562 -3.4796718562 -3.4796718562 -3.4796718562 -3.4796718562 -3.4796718562 -3.4796718562 -3.4796718562 -3.4796718562 -3.4796718562 -3.4796718562 -3.4796718562 -3.4796718562 -3.4796718562 -3.4796718562 -3.4796718562 -3.4796718562 -3.4796718562 -3.4796718562 -3.4796718562 -3.4796718562 -3.4796718562 -3.4796718562 -3.4796718562 -3.4796718562 -3.4796718562 -3.4796718562 -3.4796718562 -3.4796718562 -3.4796718562 -3.4796718562 -3.4796718562 -3.4796718562 -3.4796718562 -3.4796718562 -3.4796718562 -3.4796718562 -3.4796718562 -3.4796718562 -3.4796718562 -3.4796718562 -3.4796718562 -3.4796718562 -3.4796718562 -3.4796718562 -3.4796718562 -3.4796718562 -3.4796718562 -3.4796718562 -3.4796718562 -3.4796718562 -3.4796718562 -3.4796718562 -3.4796718562 -3.4796718562 -3.4796718562 -3.4796718562 -3.4796718562 -3.4796718562 -3.4796718562 -3.4796718562 -3.4796718562 -3.4796718562 -3.4796718562 -3.4796718562 -3.4796718562 -3.4796718562 -3.4796718562 -3.4796718562 -3.4796718562 -3.4796718562 -3.4796718562 -3.4796718562 -3.4796718562 -3.4796718562 -3.4796718562 -3.4796718562 -3.4796718562 -3.4796718562 -3.4796718562 -3.4796718562 -3.4796718562 -3.4796718562 -3.4796718562 -3.4796718562 -3.4796718562 -3.4796718562
-1.3939933923 -3.4796718562 -3.4796718562 -3.4796718562 -3.4796718562 -3.4796718562 -3.4796718562 -3.4796718562 -3.4796718562 -3.4796718562 -3.4796718562 -3.4796718562 -3.4796718562 -3.4796718562 -3.4796718562 -3.4796718562 -3.4796718562 -3.4796718562 -3.4796718562 -3.4796718562 -3.4796718562 -3.4796718562 -3.4796718562 -3.4796718562 -3.4796718562 -3.4796718562 -3.4796718562 -3.4796718562 -3.4796718562 -3.4796718562 -3.4796718562 -3.4796718562 -3.4796718562 -3.4796718562 -3.4796718562 -3.4796718562 -3.4796718562 -3.4796718562 -3.4796718562 -3.4796718562 -3.4796718562 -3.4796718562 -3.4796718562 -3.4796718562 -3.4796718562 -3.4796718562 -3.4796718562 -3.4796718562 -3.4796718562 -3.4796718562 -3.4796718562 -3.4796718562 -3.4796718562 -3.4796718562 -3.4796718562 -3.4796718562 -3.4796718562 -3.4796718562 -3.4796718562 -3.4796718562 -3.4796718562 -3.4796718562 -3.4796718562 -3.4796718562 -3.4796718562 -3.4796718562 -3.4796718562 -3.4796718562 -3.4796718562 -3.4796718562 -3.4796718562 -3.4796718562 -3.4796718562 -3.4796718562 -3.4796718562 -3.4796718562 -3.4796718562 -3.4796718562 -3.4796718562 -3.4796718562 -3.4796718562 -3.4796718562 -3.4796718562 -3.4796718562 -3.4796718562 -3.4796718562 -3.4796718562 -3.4796718562 -3.4796718562 -3.4796718562 -3.4796718562 -3.4796718562 -3.4796718562 -3.4796718562 -3.4796718562 -3.4796718562 -3.4796718562 -3.4796718562 -3.4796718562 -3.4796718562 -3.4796718562 -3.4796718562 -3.4796718562 -3.4796718562 -3.4796718562 -3.4796718562 -3.4796718562 -3.4796718562 -3.4796718562 -3.4796718562 -3.4796718562 -3.4796718562 -3.4796718562 -3.4796718562 -3.4796718562 -3.4796718562 -3.4796718562 -3.4796718562 -3.4796718562 -3.4796718562 -3.4796718562 -3.4796718562 -3.4796718562 -3.4796718562 -3.4796718562 -3.4796718562 -3.4796718562 -3.4796718562 -3.4796718562
2.2894384412 -1.2478380469 -3.4796718562 -3.4796718562 -3.4796718562 -3.4796718562 -3.4796718562 -3.4796718562 -3.4796718562 -3.4796718562 -3.4796718562 -3.4796718562 -3.4796718562 -3.4796718562 -3.4796718562 -3.4796718562 -3.4796718562 -3.4796718562 -3.4796718562 -3.4796718562 -3.4796718562 -3.4796718562 -3.4796718562 -3.4796718562 -3.4796718562 -3.4796718562 -3.4796718562 -3.4796718562 -3.4796718562 -3.4796718562 -3.4796718562 -3.4796718562 -3.4796718562 -3.4796718562 -3.4796718562 -3.4796718562 -3.4796718562 -3.4796718562 -3.4796718562 -3.4796718562 -3.4796718562 -3.4796718562 -3.4796718562 -3.4796718562 -3.4796718562 -3.4796718562 -3.4796718562 -3.4796718562 -3.4796718562 -3.4796718562 -3.4796718562 -3.4796718562 -3.4796718562 -3.4796718562 -3.4796718562 -3.4796718562 -3.4796718562 -3.4796718562 -3.4796718562 -3.4796718562 -3.4796718562 -3.4796718562 -3.4796718562 -3.4796718562 -3.4796718562 -3.4796718562 -3.4796718562 -3.4796718562 -3.4796718562 -3.4796718562 -3.4796718562 -3.4796718562 -3.4796718562 -3.4796718562 -3.4796718562 -3.4796718562 -3.4796718562 -3.4796718562 -3.4796718562 -3.4796718562 -3.4796718562 -3.4796718562 -3.4796718562 -3.4796718562 -3.4796718562 -3.4796718562 -3.4796718562 -3.4796718562 -3.4796718562 -3.4796718562 -3.4796718562 -3.4796718562 -3.4796718562 -3.4796718562 -3.4796718562 -3.4796718562 -3.4796718562 -3.4796718562 -3.4796718562 -3.4796718562 -3.4796718562 -3.4796718562 -3.4796718562 -3.4796718562 -3.4796718562 -3.4796718562 -3.4796718562 -3.4796718562 -3.4796718562 -3.4796718562 -3.4796718562 -3.4796718562 -3.4796718562 -3.4796718562 -3.4796718562 -3.4796718562 -3.4796718562 -3.4796718562 -3.4796718562 -3.4796718562 -3.4796718562 -3.4796718562 -3.4796718562 -3.4796718562 -3.4796718562 -3.4796718562 -3.4796718562 -3.4796718562 -3.4796718562
3.0894128842 2.1800446065 -2.3481889003 -3.4796718562 -3.4796718562 -3.4796718562 -3.4796718562 -3.4796718562 -3.4796718562 -3.4796718562 -3.4796718562 -3.4796718562 -3.4796718562 -3.4796718562 -3.4796718562 -3.4796718562 -3.4796718562 -3.4796718562 -3.4796718562 -3.4796718562 -3.4796718562 -3.4796718562 -3.4796718562 -3.4796718562 -3.4796718562 -3.4796718562 -3.4796718562 -3.4796718562 -3.4796718562 -3.4796718562 -3.4796718562 -3.4796718562 -3.4796718562 -3.4796718562 -3.4796718562 -3.4796718562 -3.4796718562 -3.4796718562 -3.4796718562 -3.4796718562 -3.4796718562 -3.4796718562 -3.4796718562 -3.4796718562 -3.4796718562 -3.4796718562 -3.4796718562 -3.4796718562 -3.4796718562 -3.4796718562 -3.4796718562 -3.4796718562 -3.4796718562 -3.4796718562 -3.4796718562 -3.4796718562 -3.4796718562 -3.4796718562 -3.4796718562 -3.4796718562 -3.4796718562 -3.4796718562 -3.4796718562 -3.4796718562 -3.4796718562 -3.4796718562 -3.4796718562 -3.4796718562 -3.4796718562 -3.4796718562 -3.4796718562 -3.4796718562 -3.4796718562 -3.4796718562 -3.4796718562 -3.4796718562 -3.4796718562 -3.4796718562 -3.4796718562 -3.4796718562 -3.4796718562 -3.4796718562 -3.4796718562 -3.4796718562 -3.4796718562 -3.4796718562 -3.4796718562 -3.4796718562 -3.4796718562 -3.4796718562 -3.4796718562 -3.4796718562 -3.4796718562 -3.4796718562 -3.4796718562 -3.4796718562 -3.4796718562 -3.4796718562 -3.4796718562 -3.4796718562 -3.4796718562 -3.4796718562 -3.4796718562 -3.4796718562 -3.4796718562 -3.4796718562 -3.4796718562 -3.4796718562 -3.4796718562 -3.4796718562 -3.4796718562 -3.4796718562 -3.4796718562 -3.4796718562 -3.4796718562 -3.4796718562 -3.4796718562 -3.4796718562 -3.4796718562 -3.4796718562 -3.4796718562 -3.4796718562 -3.4796718562 -3.4796718562 -3.4796718562 -3.4796718562 -3.4796718562 -3.4796718562 -3.4796718562
1.6896160406 2.0108074188 -0.9879635612 -3.4796718562 -3.4796718562 -3.4796718562 -3.4796718562 -3.4796718562 -3.4796718562 -3.4796718562 -3.4796718562 -3.4796718562 -3.4796718562 -3.4796718562 -3.4796718562 -3.4796718562 -3.4796718562 -3.4796718562 -3.4796718562 -3.4796718562 -3.4796718562 -3.4796718562 -3.4796718562 -3.4796718562 -3.4796718562 -3.4796718562 -3.4796718562 -3.4796718562 -3.4796718562 -3.4796718562 -3.4796718562 -3.4796718562 -3.4796718562 -3.4796718562 -3.4796718562 -3.4796718562 -3.4796718562 -3.4796718562 -3.4796718562 -3.4796718562 -3.4796718562 -3.4796718562 -3.4796718562 -3.4796718562 -3.4796718562 -3.4796718562 -3.4796718562 -3.4796718562 -3.4796718562 -3.4796718562 -3.4796718562 -3.4796718562 -3.4796718562 -3.4796718562 -3.4796718562 -3.4796718562 -3.4796718562 -3.4796718562 -3.4796718562 -3.4796718562 -3.4796718562 -3.4796718562 -3.4796718562 -3.4796718562 -3.4796718562 -3.4796718562 -3.4796718562 -3.4796718562 -3.4796718562 -3.4796718562 -3.4796718562 -3.4796718562 -3.4796718562 -3.4796718562 -3.4796718562 -3.4796718562 -3.4796718562 -3.4796718562 -3.4796718562 -3.4796718562 -3.4796718562 -3.4796718562 -3.4796718562 -3.4796718562 -3.4796718562 -3.4796718562 -3.4796718562 -3.4796718562 -3.4796718562 -3.4796718562 -3.4796718562 -3.4796718562 -3.4796718562 -3.4796718562 -3.4796718562 -3.4796718562 -3.4796718562 -3.4796718562 -3.4796718562 -3.4796718562 -3.4796718562 -3.4796718562 -3.4796718562 -3.4796718562 -3.4796718562 -3.4796718562 -3.4796718562 -3.4796718562 -3.4796718562 -3.4796718562 -3.4796718562 -3.4796718562 -3.4796718562 -3.4796718562 -3.4796718562 -3.4796718562 -3.4796718562 -3.4796718562 -3.4796718562 -3.4796718562 -3.4796718562 -3.4796718562 -3.4796718562 -3.4796718562 -3.4796718562 -3.4796718562 -3.4796718562 -3.4796718562 -3.4796718562
1.7292047454 2.7906302068 -2.6639139602 -3.4796718562 -3.4796718562 -3.4796718562 -3.4796718562 -3.4796718562 -3.4796718562 -3.4796718562 -3.4796718562 -3.4796718562 -3.4796718562 -3.4796718562 -3.4796718562 -3.4796718562 -3.4796718562 -3.4796718562 -3.4796718562 -3.4796718562 -3.4796718562 -3.4796718562 -3.4796718562 -3.4796718562 -3.4796718562 -3.4796718562 -3.4796718562 -3.4796718562 -3.4796718562 -3.4796718562 -3.4796718562 -3.4796718562 -3.4796718562 -3.4796718562 -3.4796718562 -3.4796718562 -3.4796718562 -3.4796718562 -3.4796718562 -3.4796718562 -3.4796718562 -3.4796718562 -3.4796718562 -3.4796718562 -3.4796718562 -3.4796718562 -3.4796718562 -3.4796718562 -3.4796718562 -3.4796718562 -3.4796718562 -3.4796718562 -3.4796718562 -3.4796718562 -3.4796718562 -3.4796718562 -3.4796718562 -3.4796718562 -3.4796718562 -3.4796718562 -3.4796718562 -3.4796718562 -3.4796718562 -3.4796718562 -3.4796718562 -3.4796718562 -3.4796718562 -3.4796718562 -3.4796718562 -3.4796718562 -3.4796718562 -3.4796718562 -3.4796718562 -3.4796718562 -3.4796718562 -3.4796718562 -3.4796718562 -3.4796718562 -3.4796718562 -3.4796718562 -3.4796718562 -3.4796718562 -3.4796718562 -3.4796718562 -3.4796718562 -3.4796718562 -3.4796718562 -3.4796718562 -3.4796718562 -3.4796718562 -3.4796718562 -3.4796718562 -3.4796718562 -3.4796718562 -3.4796718562 -3.4796718562 -3.4796718562 -3.4796718562 -3.4796718562 -3.4796718562 -3.4796718562 -3.4796718562 -3.4796718562 -3.4796718562 -3.4796718562 -3.4796718562 -3.4796718562 -3.4796718562 -3.4796718562 -3.4796718562 -3.4796718562 -3.4796718562 -3.4796718562 -3.4796718562 -3.4796718562 -3.4796718562 -3.4796718562 -3.4796718562 -3.4796718562 -3.4796718562 -3.4796718562 -3.4796718562 -3.4796718562 -3.4796718562 -3.4796718562 -3.4796718562 -3.4796718562 -3.4796718562 -3.4796718562
2.0451674267 1.6074508044 -3.3165741283 -3.4796718562 -3.4796718562 -3.4796718562 -3.4796718562 -3.4796718562 -3.4796718562 -3.4796718562 -3.4796718562 -3.4796718562 -3.4796718562 -3.4796718562 -3.4796718562 -3.4796718562 -3.4796718562 -3.4796718562 -3.4796718562 -3.4796718562 -3.4796718562 -3.4796718562 -3.4796718562 -3.4796718562 -3.4796718562 -3.4796718562 -3.4796718562 -3.4796718562 -3.4796718562 -3.4796718562 -3.4796718562 -3.4796718562 -3.4796718562 -3.4796718562 -3.4796718562 -3.4796718562 -3.4796718562 -3.4796718562 -3.4796718562 -3.4796718562 -3.4796718562 -3.4796718562 -3.4796718562 -3.4796718562 -3.4796718562 -3.4796718562 -3.4796718562 -3.4796718562 -3.4796718562 -3.4796718562 -3.4796718562 -3.4796718562 -3.4796718562 -3.4796718562 -3.4796718562 -3.4796718562 -3.4796718562 -3.4796718562 -3.4796718562 -3.4796718562 -3.4796718562 -3.4796718562 -3.4796718562 -3.4796718562 -3.4796718562 -3.4796718562 -3.4796718562 -3.4796718562 -3.4796718562 -3.4796718562 -3.4796718562 -3.4796718562 -3.4796718562 -3.4796718562 -3.4796718562 -3.4796718562 -3.4796718562 -3.4796718562 -3.4796718562 -3.4796718562 -3.4796718562 -3.4796718562 -3.4796718562 -3.4796718562 -3.4796718562 -3.4796718562 -3.4796718562 -3.4796718562 -3.4796718562 -3.4796718562 -3.4796718562 -3.4796718562 -3.4796718562 -3.4796718562 -3.4796718562 -3.4796718562 -3.4796718562 -3.4796718562 -3.4796718562 -3.4796718562 -3.4796718562 -3.4796718562 -3.4796718562 -3.4796718562 -3.4796718562 -3.4796718562 -3.4796718562 -3.4796718562 -3.4796718562 -3.4796718562 -3.4796718562 -3.4796718562 -3.4796718562 -3.4796718562 -3.4796718562 -3.4796718562 -3.4796718562 -3.4796718562 -3.4796718562 -3.4796718562 -3.4796718562 -3.4796718562 -3.4796718562 -3.4796718562 -3.4796718562 -3.4796718562 -3.4796718562 -3.4796718562 -3.4796718562
2.3275170569 1.5629740174 -3.4639752206 -3.4796718562 -3.4796718562 -3.4796718562 -3.4796718562 -3.4796718562 -3.4796718562 -3.4796718562 -3.4796718562 -3.4796718562 -3.4796718562 -3.4796718562 -3.4796718562 -3.4796718562 -3.4796718562 -3.4796718562 -3.4796718562 -3.4796718562 -3.4796718562 -3.4796718562 -3.4796718562 -3.4796718562 -3.4796718562 -3.3059399262 -3.1054838186 -3.431534101 -3.4796718562 -3.4796718562 -3.4796718562 -3.4796718562 -3.4796718562 -3.4796718562 -3.4796718562 -3.4796718562 -3.4796718562 -3.4796718562 -3.4796718562 -3.4796718562 -3.4796718562 -3.4796718562 -3.4796718562 -3.4796718562 -3.4796718562 -3.4796718562 -3.4796718562 -3.4796718562 -3.4796718562 -3.4796718562 -3.4796718562 -3.4796718562 -3.4796718562 -3.4796718562 -3.4796718562 -3.4796718562 -3.4796718562 -3.4796718562 -3.4796718562 -3.4796718562 -3.4796718562 -3.4796718562 -3.4796718562 -3.4796718562 -3.4796718562 -3.4796718562 -3.4796718562 -3.4796718562 -3.4796718562 -3.4796718562 -3.4796718562 -3.4796718562 -3.4796718562 -3.4796718562 -3.4796718562 -3.4796718562 -3.4796718562 -3.4796718562 -3.4796718562 -3.4796718562 -3.4796718562 -3.4796718562 -3.4796718562 -3.4796718562 -3.4796718562 -3.4796718562 -3.4796718562 -3.4796718562 -3.4796718562 -3.4796718562 -3.4796718562 -3.4796718562 -3.4796718562 -3.4796718562 -3.4796718562 -3.4796718562 -3.4796718562 -3.4796718562 -3.4796718562 -3.4796718562 -3.4796718562 -3.4796718562 -3.4796718562 -3.4796718562 -3.4796718562 -3.4796718562 -3.4796718562 -3.4796718562 -3.4796718562 -3.4796718562 -3.4796718562 -3.4796718562 -3.4796718562 -3.4796718562 -3.4796718562 -3.4796718562 -3.4796718562 -3.4796718562 -3.4796718562 -3.4796718562 -3.4796718562 -3.4796718562 -3.4796718562 -3.4796718562 -3.4796718562 -3.4796718562 -3.4796718562 -3.4796718562 -3.4796718562
2.0136289822 0.2801702894 -3.2916131207 -3.4796718562 -3.4796718562 -3.4796718562 -3.4796718562 -3.4796718562 -3.4796718562 -3.4796718562 -3.4796718562 -3.4796718562 -3.4796718562 -3.4796718562 -3.4796718562 -3.4796718562 -3.4796718562 -3.4796718562 -3.4796718562 -3.4796718562 -3.4796718562 -3.4796718562 -3.4796718562 -3.1211593641 -0.8095017245 -0.1667077118 1.123422867 -1.479041005 -1.4753589467 -3.3494613129 -3.4796718562 -3.2814249836 -3.3989372631 -3.4796718562 -3.4796718562 -3.4796718562 -3.4796718562 -3.4796718562 -3.4796718562 -3.4796718562 -3.4796718562 -3.4796718562 -3.4796718562 -3.4796718562 -3.4796718562 -3.4796718562 -3.4796718562 -3.4796718562 -3.4796718562 -3.4796718562 -3.4796718562 -3.4796718562 -3.4796718562 -3.4796718562 -3.4796718562 -3.4796718562 -3.4796718562 -3.4796718562 -3.4796718562 -3.4796718562 -3.4796718562 -3.4796718562 -3.4796718562 -3.4796718562 -3.4796718562 -3.4796718562 -3.4796718562 -3.4796718562 -3.4796718562 -3.4796718562 -3.4796718562 -3.4796718562 -3.4796718562 -3.4796718562 -3.4796718562 -3.4796718562 -3.4796718562 -3.4796718562 -3.4796718562 -3.4796718562 -3.4796718562 -3.4796718562 -3.4796718562 -3.4796718562 -3.4796718562 -3.4796718562 -3.4796718562 -3.4796718562 -3.4796718562 -3.4796718562 -3.4796718562 -3.4796718562 -3.4796718562 -3.4796718562 -3.4796718562 -3.4796718562 -3.4796718562 -3.4796718562 -3.4796718562 -3.4796718562 -3.4796718562 -3.4796718562 -3.4796718562 -3.4796718562 -3.4796718562 -3.4796718562 -3.4796718562 -3.4796718562 -3.4796718562 -3.4796718562 -3.4796718562 -3.4796718562 -3.4796718562 -3.4796718562 -3.4796718562 -3.4796718562 -3.4796718562 -3.4796718562 -3.4796718562 -3.4796718562 -3.4796718562 -3.4796718562 -3.4796718562 -3.4796718562 -3.4796718562 -3.4796718562 -3.4796718562 -3.4796718562 -3.4796718562
-1.0351297405 -3.1093848654 -3.4796718562 -3.4796718562 -3.4796718562 -3.4796718562 -3.4796718562 -3.4796718562 -3.4796718562 -3.4796718562 -3.4796718562 -3.4796718562 -3.4796718562 -3.422715794 -2.5609580197 -1.7058514976 -0.3582474335 0.6422260135 -1.2151463036 -2.0750776377 -3.0331320125 -2.0086803951 -1.187569719 0.8949019296 1.559645576 1.644798639 1.9054865251 0.8688930736 0.8349823043 -0.3318378662 -0.0539991542 -3.1504885736 -2.345478418 -2.8065113305 -2.6634573501 -1.9408314193 -2.4927343369 -3.4271975342 -3.4796718562 -3.4796718562 -3.4796718562 -3.4796718562 -3.4796718562 -3.4796718562 -3.4796718562 -3.4796718562 -3.4796718562 -3.4796718562 -3.4796718562 -3.4796718562 -3.4796718562 -3.4796718562 -3.4796718562 -3.4796718562 -3.4796718562 -3.4796718562 -3.4796718562 -3.4796718562 -3.4796718562 -3.4796718562 -3.4796718562 -3.4796718562 -3.4796718562 -3.4796718562 -3.4796718562 -3.4796718562 -3.4796718562 -3.4796718562 -3.4796718562 -3.4796718562 -3.4796718562 -3.4796718562 -3.4796718562 -3.4796718562 -3.4796718562 -3.4796718562 -3.4796718562 -3.4796718562 -3.4796718562 -3.4796718562 -3.4796718562 -3.4796718562 -3.4796718562 -3.4796718562 -3.4796718562 -3.4796718562 -3.4796718562 -3.4796718562 -3.4796718562 -3.4796718562 -3.4796718562 -3.4796718562 -3.4796718562 -3.4796718562 -3.4796718562 -3.4796718562 -3.4796718562 -3.4796718562 -3.4796718562 -3.4796718562 -3.4796718562 -3.4796718562 -3.4796718562 -3.4796718562 -3.4796718562 -3.4796718562 -3.4796718562 -3.4796718562 -3.4796718562 -3.4796718562 -3.4796718562 -3.4796718562 -3.4796718562 -3.4796718562 -3.4796718562 -3.4796718562 -3.4796718562 -3.4796718562 -3.4796718562 -3.4796718562 -3.4796718562 -3.4796718562 -3.4796718562 -3.4796718562 -3.4796718562 -3.4796718562 -3.4796718562 -3.4796718562 -3.4796718562
-0.0408548254 0.5815840032 -3.3300298938 -3.4796718562 -3.4796718562 -3.4796718562 -3.4796718562 -3.4796718562 -3.4796718562 -3.4796718562 -3.4796718562 -3.4796718562 -3.4796718562 0.4108778821 5.1502664015 5.2361664213 3.5667182114 4.7618489209 2.573265809 1.7553482297 0.1673587386 1.0100387108 1.747131706 2.4096822932 2.7107058406 3.082690274 2.8093041242 2.3596361947 2.1661744111 0.8664697644 1.3092382752 -2.9758856037 -2.8235672512 -0.3126043456 -2.6661337402 0.2634022582 1.7702873635 0.8243871087 -0.5579516701 -2.4279972711 -3.4796718562 -3.4796718562 -3.4796718562 -3.4796718562 -3.4796718562 -3.4796718562 -3.4796718562 -3.4796718562 -3.4796718562 -3.4796718562 -3.4796718562 -3.4796718562 -3.4796718562 -3.4796718562 -3.4796718562 -3.4796718562 -3.4796718562 -3.4796718562 -3.4796718562 -3.4796718562 -3.4796718562 -3.4796718562 -3.4796718562 -3.4796718562 -3.4796718562 -3.4796718562 -3.4796718562 -3.4796718562 -3.4796718562 -3.4796718562 -3.4796718562 -3.4796718562 -3.4796718562 -3.4796718562 -3.4796718562 -3.4796718562 -3.4796718562 -3.4796718562 -3.4796718562 -3.4796718562 -3.4796718562 -3.4796718562 -3.4796718562 -3.4796718562 -3.4796718562 -3.4796718562 -3.4796718562 -3.4796718562 -3.4796718562 -3.4796718562 -3.4796718562 -3.4796718562 -3.4796718562 -3.4796718562 -3.4796718562 -3.4796718562 -3.4796718562 -3.4796718562 -3.4796718562 -3.4796718562 -3.4796718562 -3.4796718562 -3.4796718562 -3.4796718562 -3.4796718562 -3.4796718562 -3.4796718562 -3.4796718562 -3.4796718562 -3.4796718562 -3.4796718562 -3.4796718562 -3.4796718562 -3.4796718562 -3.4796718562 -3.4796718562 -3.4796718562 -3.4796718562 -3.4796718562 -3.4796718562 -3.4796718562 -3.4796718562 -3.4796718562 -3.4796718562 -3.4796718562 -3.4796718562 -3.4796718562 -3.4796718562 -3.4796718562
1.883824781 1.6321003753 -2.4029016352 -3.4796718562 -3.4796718562 -3.4796718562 -3.4796718562 -3.4796718562 -3.4796718562 -3.4796718562 -3.4796718562 -3.4796718562 -3.3038864096 4.5940690972 7.6921600294 5.9816292014 4.0836122432 3.5562608177 2.4231275136 2.0914787417 2.2498335608 2.2177144229 2.2670135647 4.5295453893 3.8834278494 5.0890159527 4.3794070939 3.1872642111 2.5052927499 1.7232290919 1.8151047652 0.2202288577 -0.4586672429 -0.0161841644 -3.1282250462 -1.7193519004 3.0677511401 2.0959604819 1.9644961038 1.1268356687 -1.7141791022 -1.6917493114 -3.2020707656 -3.4796718562 -3.4796718562 -3.4796718562 -3.4796718562 -3.4796718562 -3.4796718562 -3.4796718562 -3.4796718562 -3.4796718562 -3.4796718562 -3.4796718562 -3.4796718562 -3.4796718562 -3.4796718562 -3.4796718562 -3.4796718562 -3.4796718562 -3.4796718562 -3.4796718562 -3.4796718562 -3.4796718562 -3.4796718562 -3.4796718562 -3.4796718562 -3.4796718562 -3.4796718562 -3.4796718562 -3.4796718562 -3.4796718562 -3.4796718562 -3.4796718562 -3.4796718562 -3.4796718562 -3.4796718562 -3.4796718562 -3.4796718562 -3.4796718562 -3.4796718562 -3.4796718562 -3.4796718562 -3.4796718562 -3.4796718562 -3.4796718562 -3.4796718562 -3.4796718562 -3.4796718562 -3.4796718562 -3.4796718562 -3.4796718562 -3.4796718562 -3.4796718562 -3.4796718562 -3.4796718562 -3.4796718562 -3.4796718562 -3.4796718562 -3.4796718562 -3.4796718562 -3.4796718562 -3.4796718562 -3.4796718562 -3.4796718562 -3.4796718562 -3.4796718562 -3.4796718562 -3.4796718562 -3.4796718562 -3.4796718562 -3.4796718562 -3.4796718562 -3.4796718562 -3.4796718562 -3.4796718562 -3.4796718562 -3.4796718562 -3.4796718562 -3.4796718562 -3.4796718562 -3.4796718562 -3.4796718562 -3.4796718562 -3.4796718562 -3.4796718562 -3.4796718562 -3.4796718562 -3.4796718562
2.3603831514 2.1011891788 -1.3049157351 -2.3330915909 -2.2706059402 -1.250200543 -1.6817590727 -3.3899737828 -3.4796718562 -3.4796718562 -3.4796718562 -3.4796718562 -1.1191790565 6.0787335715 5.9181378824 4.9919115825 4.9724907085 3.7810947824 2.1878361552 2.0451674267 2.0451674267 2.2348944269 2.0578656905 4.7013454288 7.2551903638 5.5976934609 5.3340177481 4.0821183299 2.5680371122 1.9480630566 1.6477864658 1.4446142452 1.5469473122 0.3534458606 -2.2918321643 0.5665904033 3.6190051799 3.6219930067 2.2460987773 1.245176808 -0.6768945928 1.0898098158 -0.2674860523 -3.4796718562 -3.4796718562 -3.4796718562 -3.4796718562 -3.4796718562 -3.4796718562 -3.4796718562 -3.4796718562 -3.4796718562 -3.4796718562 -3.4796718562 -3.4796718562 -3.4796718562 -3.4796718562 -3.4796718562 -3.4796718562 -3.4796718562 -3.4796718562 -3.4796718562 -3.4796718562 -3.4796718562 -3.4796718562 -3.4796718562 -3.4796718562 -3.4796718562 -3.4796718562 -3.4796718562 -3.4796718562 -3.4796718562 -3.4796718562 -3.4796718562 -3.4796718562 -3.4796718562 -3.4796718562 -3.4796718562 -3.4796718562 -3.4796718562 -3.4796718562 -3.4796718562 -3.4796718562 -3.4796718562 -3.4796718562 -3.4796718562 -3.4796718562 -3.4796718562 -3.4796718562 -3.4796718562 -3.4796718562 -3.4796718562 -3.4796718562 -3.4796718562 -3.4796718562 -3.4796718562 -3.4796718562 -3.4796718562 -3.4796718562 -3.4796718562 -3.4796718562 -3.4796718562 -3.4796718562 -3.4796718562 -3.4796718562 -3.4796718562 -3.4796718562 -3.4796718562 -3.4796718562 -3.4796718562 -3.4796718562 -3.4796718562 -3.4796718562 -3.4796718562 -3.4796718562 -3.4796718562 -3.4796718562 -3.4796718562 -3.4796718562 -3.4796718562 -3.4796718562 -3.4796718562 -3.4796718562 -3.4796718562 -3.4796718562 -3.4796718562 -3.4796718562 -3.4796718562 -3.4796718562
3.7713843454 2.6785867028 1.5641273161 1.476733383 1.5237916547 1.5828012335 1.6291125485 0.4831600709 -2.8196767494 -3.4796718562 -3.4796718562 -2.0112717086 6.3599169007 7.4187738796 5.804600465 4.540002783 6.1608988078 7.142399903 3.8468269714 2.376069242 2.0892378717 2.7047301871 2.0899848284 3.5009860223 7.0408137927 6.7808728634 5.4303751616 4.4062975348 2.9153719746 1.7799978006 1.3721594459 2.0294813362 2.1557170174 1.2090089928 -1.5956611545 3.1003852438 5.487890827 2.8668197896 5.4027377639 3.5256355932 1.0285593669 1.0726298118 0.7328885996 -2.7812599763 -3.4796718562 -3.4796718562 -3.4796718562 -3.4796718562 -3.4796718562 -3.4796718562 -3.4796718562 -3.4796718562 -3.4796718562 -3.4796718562 -3.4796718562 -3.4796718562 -3.4796718562 -3.4796718562 -3.4796718562 -3.4796718562 -3.4796718562 -3.4796718562 -3.4796718562 -3.4796718562 -3.4796718562 -3.4796718562 -3.4796718562 -3.4796718562 -3.4796718562 -3.4796718562 -3.4796718562 -3.4796718562 -3.4796718562 -3.4796718562 -3.4796718562 -3.4796718562 -3.4796718562 -3.4796718562 -3.4796718562 -3.4796718562 -3.4796718562 -3.4796718562 -3.4796718562 -3.4796718562 -3.4796718562 -3.4796718562 -3.4796718562 -3.4796718562 -3.4796718562 -3.4796718562 -3.4796718562 -3.4796718562 -3.4796718562 -3.4796718562 -3.4796718562 -3.4796718562 -3.4796718562 -3.4796718562 -3.4796718562 -3.4796718562 -3.4796718562 -3.4796718562 -3.4796718562 -3.4796718562 -3.4796718562 -3.4796718562 -3.4796718562 -3.4796718562 -3.4796718562 -3.4796718562 -3.4796718562 -3.4796718562 -3.4796718562 -3.4796718562 -3.4796718562 -3.4796718562 -3.4796718562 -3.4796718562 -3.4796718562 -3.4796718562 -3.4796718562 -3.4796718562 -3.4796718562 -3.4796718562 -3.4796718562 -3.4796718562 -3.4796718562 -3.4796718562 -3.4796718562
5.7351334925 4.0626974558 2.8922163172 2.8653258762 2.9818511204 3.0938946244 3.06551027 2.0757926512 -1.3720915695 -3.4796718562 -2.9346789023 3.4848992204 3.1245198488 6.0764927015 7.0116824817 5.9233665793 6.0884440085 6.3304579772 4.4145140585 4.0485052787 4.6049880153 2.9377806755 3.0162111283 3.660087798 7.0975825014 7.7407122145 5.6350412956 4.2457018457 4.345047086 2.3454440175 1.1884080993 2.395490116 3.0513180929 2.0182769858 -0.0201063013 3.8094791367 6.7928241705 6.9317581155 7.1745190409 5.9778944179 1.0464863276 -0.5220555687 -3.2711233082 -3.4796718562 -3.4796718562 -3.4796718562 -3.4796718562 -3.4796718562 -3.4796718562 -3.4796718562 -3.4796718562 -3.4796718562 -3.4796718562 -3.4796718562 -3.4796718562 -3.4796718562 -3.4796718562 -3.4796718562 -3.4796718562 -3.4796718562 -3.4796718562 -3.4796718562 -3.4796718562 -3.4796718562 -3.4796718562 -3.4796718562 -3.4796718562 -3.4796718562 -3.4796718562 -3.4796718562 -3.4796718562 -3.4796718562 -3.4796718562 -3.4796718562 -3.4796718562 -3.4796718562 -3.4796718562 -3.4796718562 -3.4796718562 -3.4796718562 -3.4796718562 -3.4796718562 -3.4796718562 -3.4796718562 -3.4796718562 -3.4796718562 -3.4796718562 -3.4796718562 -3.4796718562 -3.4796718562 -3.4796718562 -3.4796718562 -3.4796718562 -3.4796718562 -3.4796718562 -3.4796718562 -3.4796718562 -3.4796718562 -3.4796718562 -3.4796718562 -3.4796718562 -3.4796718562 -3.4796718562 -3.4796718562 -3.4796718562 -3.4796718562 -3.4796718562 -3.4796718562 -3.4796718562 -3.4796718562 -3.4796718562 -3.4796718562 -3.4796718562 -3.4796718562 -3.4796718562 -3.4796718562 -3.4796718562 -3.4796718562 -3.4796718562 -3.4796718562 -3.4796718562 -3.4796718562 -3.4796718562 -3.4796718562 -3.4796718562 -3.4796718562 -3.4796718562 -3.4796718562 -3.4796718562
5.9644491974 5.2884533898 3.2081789985 4.7476567438 5.1203881338 5.1726751023 5.229443811 2.9616832896 0.0666623012 -1.2895119033 3.9363749572 5.7201943587 3.1521572465 3.9200287274 7.4322191001 7.0550059699 6.3259762371 6.092178792 5.1525072716 4.2128357512 6.7196224145 7.8781522461 6.8929163674 3.7131217233 6.3536136347 9.0792586092 7.037825966 4.337577519 6.0682761778 2.9138780613 1.0980263394 4.0074226605 3.6608347547 2.3073492262 0.1439524575 3.8595252352 6.1937649023 2.897445014 4.4048036214 2.7741971596 1.5467599587 -2.8422517136 -3.4796718562 -3.4796718562 -3.4796718562 -3.4796718562 -3.4796718562 -3.4796718562 -3.4796718562 -3.4796718562 -3.4796718562 -3.4796718562 -3.4796718562 -3.4796718562 -3.4796718562 -3.4796718562 -3.4796718562 -3.4796718562 -3.4796718562 -3.4796718562 -3.4796718562 -3.4796718562 -3.4796718562 -3.4796718562 -3.4796718562 -3.4796718562 -3.4796718562 -3.4796718562 -3.4796718562 -3.4796718562 -3.4796718562 -3.4796718562 -3.4796718562 -3.4796718562 -3.4796718562 -3.4796718562 -3.4796718562 -3.4796718562 -3.4796718562 -3.4796718562 -3.4796718562 -3.4796718562 -3.4796718562 -3.4796718562 -3.4796718562 -3.4796718562 -3.4796718562 -3.4796718562 -3.4796718562 -3.4796718562 -3.4796718562 -3.4796718562 -3.4796718562 -3.4796718562 -3.4796718562 -3.4796718562 -3.4796718562 -3.4796718562 -3.4796718562 -3.4796718562 -3.4796718562 -3.4796718562 -3.4796718562 -3.4796718562 -3.4796718562 -3.4796718562 -3.4796718562 -3.4796718562 -3.4796718562 -3.4796718562 -3.4796718562 -3.4796718562 -3.4796718562 -3.4796718562 -3.4796718562 -3.4796718562 -3.4796718562 -3.4796718562 -3.4796718562 -3.4796718562 -3.4796718562 -3.4796718562 -3.4796718562 -3.4796718562 -3.4796718562 -3.4796718562 -3.4796718562 -3.4796718562 -3.4796718562
5.3706186261 5.8128169887 4.45709059 5.8942352682 5.5991873743 6.4828371427 6.7801259067 5.1166533503 2.4268622971 2.9258293684 4.2240401016 5.1756629291 4.0081696172 5.2638038189 6.2228962134 6.248292741 5.3990029805 5.0651133385 4.4720297239 3.8214304438 6.0189770361 5.034488114 4.6610097673 4.2277748851 6.4813432293 9.3638491095 6.267713615 5.3549325356 5.1928429331 4.9403715707 3.1230259354 5.163711622 4.5556888735 2.8563623959 1.6598942076 2.8899599877 5.29293513 3.0445954826 3.8886565463 4.2025129858 1.3654382684 -3.4796718562 -3.4796718562 -3.4796718562 -3.4796718562 -3.4796718562 -3.4796718562 -3.4796718562 -3.4796718562 -3.4796718562 -3.4796718562 -3.4796718562 -3.4796718562 -3.4796718562 -3.4796718562 -3.4796718562 -3.4796718562 -3.4796718562 -3.4796718562 -3.4796718562 -3.4796718562 -3.4796718562 -3.4796718562 -3.4796718562 -3.4796718562 -3.4796718562 -3.4796718562 -3.4796718562 -3.4796718562 -3.4796718562 -3.4796718562 -3.4796718562 -3.4796718562 -3.4796718562 -3.4796718562 -3.4796718562 -3.4796718562 -3.4796718562 -3.4796718562 -3.4796718562 -3.4796718562 -3.4796718562 -3.4796718562 -3.4796718562 -3.4796718562 -3.4796718562 -3.4796718562 -3.4796718562 -3.4796718562 -3.4796718562 -3.4796718562 -3.4796718562 -3.4796718562 -3.4796718562 -3.4796718562 -3.4796718562 -3.4796718562 -3.4796718562 -3.4796718562 -3.4796718562 -3.4796718562 -3.4796718562 -3.4796718562 -3.4796718562 -3.4796718562 -3.4796718562 -3.4796718562 -3.4796718562 -3.4796718562 -3.4796718562 -3.4796718562 -3.4796718562 -3.4796718562 -3.4796718562 -3.4796718562 -3.4796718562 -3.4796718562 -3.4796718562 -3.4796718562 -3.4796718562 -3.4796718562 -3.4796718562 -3.4796718562 -3.4796718562 -3.4796718562 -3.4796718562 -3.4796718562 -3.4796718562 -3.4796718562
4.6677323775 6.0219648628 5.124869874 5.6977856579 7.5375399939 7.9827261832 8.0738548998 8.0828183801 5.8800430911 3.9394496014 3.7310486839 5.2847186064 5.66566652 4.5706280074 5.366136886 4.6505523736 3.2686824907 4.3076992513 2.5896988563 2.8257371714 7.1782538243 4.9433593974 4.4854749443 5.6148734649 7.3874016985 7.5741408719 7.4210147497 8.1530323093 5.9136561423 3.9954713534 3.6697982351 6.7689215563 5.673136087 4.9739846219 6.2378353472 7.534520532 6.7846076469 2.8959511006 2.4843779625 3.0816455991 -3.1746312665 -3.4796718562 -3.4796718562 -3.4796718562 -3.4796718562 -3.4796718562 -3.4796718562 -3.4796718562 -3.4796718562 -3.4796718562 -3.4796718562 -3.4796718562 -3.4796718562 -3.4796718562 -3.4796718562 -3.4796718562 -3.4796718562 -3.4796718562 -3.4796718562 -3.4796718562 -3.4796718562 -3.4796718562 -3.4796718562 -3.4796718562 -3.4796718562 -3.4796718562 -3.4796718562 -3.4796718562 -3.4796718562 -3.4796718562 -3.4796718562 -3.4796718562 -3.4796718562 -3.4796718562 -3.4796718562 -3.4796718562 -3.4796718562 -3.4796718562 -3.4796718562 -3.4796718562 -3.4796718562 -3.4796718562 -3.4796718562 -3.4796718562 -3.4796718562 -3.4796718562 -3.4796718562 -3.4796718562 -3.4796718562 -3.4796718562 -3.4796718562 -3.4796718562 -3.4796718562 -3.4796718562 -3.4796718562 -3.4796718562 -3.4796718562 -3.4796718562 -3.4796718562 -3.4796718562 -3.4796718562 -3.4796718562 -3.4796718562 -3.4796718562 -3.4796718562 -3.4796718562 -3.4796718562 -3.4796718562 -3.4796718562 -3.4796718562 -3.4796718562 -3.4796718562 -3.4796718562 -3.4796718562 -3.4796718562 -3.4796718562 -3.4796718562 -3.4796718562 -3.4796718562 -3.4796718562 -3.4796718562 -3.4796718562 -3.4796718562 -3.4796718562 -3.4796718562 -3.4796718562 -3.4796718562 -3.4796718562 -3.4796718562
3.9827730896 4.4996671215 4.8895785155 5.3997499372 7.0945946747 7.3074773323 7.2342755763 7.9065366005 7.3089712457 3.7168565068 4.3577453498 5.5595986696 6.8675198398 4.7588610942 3.8139608769 2.0586126472 2.0451674267 2.0451674267 2.0451674267 2.0451674267 2.8018345572 7.0034659581 6.1960057724 5.8621161304 5.9480161502 6.4678980088 8.4271654158 8.4988732584 7.103558155 3.6750269319 5.3821133232 6.1310205401 4.0126513574 4.5250636491 3.2149016087 4.717778476 7.7989748366 5.2189864173 2.0369509031 0.4007814768 -3.3760930423 -3.4796718562 -3.4796718562 -3.4796718562 -3.4796718562 -3.4796718562 -3.4796718562 -3.4796718562 -3.4796718562 -3.4796718562 -3.4796718562 -3.4796718562 -3.4796718562 -3.4796718562 -3.4796718562 -3.4796718562 -3.4796718562 -3.4796718562 -3.4796718562 -3.4796718562 -3.4796718562 -3.4796718562 -3.4796718562 -3.4796718562 -3.4796718562 -3.4796718562 -3.4796718562 -3.4796718562 -3.4796718562 -3.4796718562 -3.4796718562 -3.4796718562 -3.4796718562 -3.4796718562 -3.4796718562 -3.4796718562 -3.4796718562 -3.4796718562 -3.4796718562 -3.4796718562 -3.4796718562 -3.4796718562 -3.4796718562 -3.4796718562 -3.4796718562 -3.4796718562 -3.4796718562 -3.4796718562 -3.4796718562 -3.4796718562 -3.4796718562 -3.4796718562 -3.4796718562 -3.4796718562 -3.4796718562 -3.4796718562 -3.4796718562 -3.4796718562 -3.4796718562 -3.4796718562 -3.4796718562 -3.4796718562 -3.4796718562 -3.4796718562 -3.4796718562 -3.4796718562 -3.4796718562 -3.4796718562 -3.4796718562 -3.4796718562 -3.4796718562 -3.4796718562 -3.4796718562 -3.4796718562 -3.4796718562 -3.4796718562 -3.4796718562 -3.4796718562 -3.4796718562 -3.4796718562 -3.4796718562 -3.4796718562 -3.4796718562 -3.4796718562 -3.4796718562 -3.4796718562 -3.4796718562 -3.4796718562 -3.4796718562
4.3308549088 4.2442079323 4.1949087906 4.4727766806 6.3633240717 6.3476379812 5.4751925632 6.8391354855 6.6105667373 5.4139421143 5.227202941 3.9902426566 4.1090087708 2.4604753483 2.3671057616 2.0451674267 2.0451674267 2.0451674267 2.0451674267 2.0451674267 2.0451674267 2.0563717771 4.5347740861 7.4038347458 5.3243073111 7.9177409509 9.4572186961 9.6917630979 8.2135358015 4.2957479442 4.8365445903 3.8251652273 2.2632787812 4.198643574 4.0806244165 1.6731829934 5.5700560633 3.5144312428 2.0389158614 -2.965874275 -3.4796718562 -3.4796718562 -3.4796718562 -3.4796718562 -3.4796718562 -3.4796718562 -3.4796718562 -3.4796718562 -3.4796718562 -3.4796718562 -3.4796718562 -3.4796718562 -3.4796718562 -3.4796718562 -3.4796718562 -3.4796718562 -3.4796718562 -3.4796718562 -3.4796718562 -3.4796718562 -3.4796718562 -3.4796718562 -3.4796718562 -3.4796718562 -3.4796718562 -3.4796718562 -3.4796718562 -3.4796718562 -3.4796718562 -3.4796718562 -3.4796718562 -3.4796718562 -3.4796718562 -3.4796718562 -3.4796718562 -3.4796718562 -3.4796718562 -3.4796718562 -3.4796718562 -3.4796718562 -3.4796718562 -3.4796718562 -3.4796718562 -3.4796718562 -3.4796718562 -3.4796718562 -3.4796718562 -3.4796718562 -3.4796718562 -3.4796718562 -3.4796718562 -3.4796718562 -3.4796718562 -3.4796718562 -3.4796718562 -3.4796718562 -3.4796718562 -3.4796718562 -3.4796718562 -3.4796718562 -3.4796718562 -3.4796718562 -3.4796718562 -3.4796718562 -3.4796718562 -3.4796718562 -3.4796718562 -3.4796718562 -3.4796718562 -3.4796718562 -3.4796718562 -3.4796718562 -3.4796718562 -3.4796718562 -3.4796718562 -3.4796718562 -3.4796718562 -3.4796718562 -3.4796718562 -3.4796718562 -3.4796718562 -3.4796718562 -3.4796718562 -3.4796718562 -3.4796718562 -3.4796718562 -3.4796718562 -3.4796718562 -3.4796718562
4.1358992118 4.2053661843 4.0903348535 4.3047114245 5.1017142165 4.605734972 4.634866283 3.5241416798 3.6302095303 3.7153625934 5.4916256105 2.0451674267 2.237135297 2.0481552535 2.0451674267 2.0451674267 2.0451674267 2.0451674267 2.0451674267 2.0451674267 2.0451674267 2.0451674267 3.6742799752 6.7173815445 4.5780975743 10.7823198704 12.6370133403 8.5347271797 7.9797383564 6.4387666978 4.2165705347 3.8386104478 1.8225743321 2.0548778638 5.0061037597 1.0681480717 2.2147265962 2.3481812206 0.7661884732 -3.4796718562 -3.4796718562 -3.4796718562 -3.4796718562 -3.4796718562 -3.4796718562 -3.4796718562 -3.4796718562 -3.4796718562 -3.4796718562 -3.4796718562 -3.4796718562 -3.4796718562 -3.4796718562 -3.4796718562 -3.4796718562 -3.4796718562 -3.4796718562 -3.4796718562 -3.4796718562 -3.4796718562 -3.4796718562 -3.4796718562 -3.4796718562 -3.4796718562 -3.4796718562 -3.4796718562 -3.4796718562 -3.4796718562 -3.4796718562 -3.4796718562 -3.4796718562 -3.4796718562 -3.4796718562 -3.4796718562 -3.4796718562 -3.4796718562 -3.4796718562 -3.4796718562 -3.4796718562 -3.4796718562 -3.4796718562 -3.4796718562 -3.4796718562 -3.4796718562 -3.4796718562 -3.4796718562 -3.4796718562 -3.4796718562 -3.4796718562 -3.4796718562 -3.4796718562 -3.4796718562 -3.4796718562 -3.4796718562 -3.4796718562 -3.4796718562 -3.4796718562 -3.4796718562 -3.4796718562 -3.4796718562 -3.4796718562 -3.4796718562 -3.4796718562 -3.4796718562 -3.4796718562 -3.4796718562 -3.4796718562 -3.4796718562 -3.4796718562 -3.4796718562 -3.4796718562 -3.4796718562 -3.4796718562 -3.4796718562 -3.4796718562 -3.4796718562 -3.4796718562 -3.4796718562 -3.4796718562 -3.4796718562 -3.4796718562 -3.4796718562 -3.4796718562 -3.4796718562 -3.4796718562 -3.4796718562 -3.4796718562 -3.4796718562 -3.4796718562
4.2404731489 3.8445861013 3.6899660658 3.1902520378 3.928245251 4.1612957394 4.5429906097 2.702489317 2.3252761868 2.5277014507 4.1471035622 2.1116465725 2.3148187931 2.1587048442 2.0451674267 2.0451674267 2.0451674267 2.0451674267 2.0451674267 2.0451674267 2.0451674267 2.0451674267 2.1041770055 4.2860375072 2.0541309071 2.1430187536 7.1170033755 5.4871438703 7.5883330491 7.2081320921 4.2882783773 2.6165892973 1.5835481902 1.4804681665 3.2485146599 1.747131706 2.1161283126 0.5071234982 0.122966312 -3.4796718562 -3.4796718562 -3.4796718562 -3.4796718562 -3.4796718562 -3.4796718562 -3.4796718562 -3.4796718562 -3.4796718562 -3.4796718562 -3.4796718562 -3.4796718562 -3.4796718562 -3.4796718562 -3.4796718562 -3.4796718562 -3.4796718562 -3.4796718562 -3.4796718562 -3.4796718562 -3.4796718562 -3.4796718562 -3.4796718562 -3.4796718562 -3.4796718562 -3.4796718562 -3.4796718562 -3.4796718562 -3.4796718562 -3.4796718562 -3.4796718562 -3.4796718562 -3.4796718562 -3.4796718562 -3.4796718562 -3.4796718562 -3.4796718562 -3.4796718562 -3.4796718562 -3.4796718562 -3.4796718562 -3.4796718562 -3.4796718562 -3.4796718562 -3.4796718562 -3.4796718562 -3.4796718562 -3.4796718562 -3.4796718562 -3.4796718562 -3.4796718562 -3.4796718562 -3.4796718562 -3.4796718562 -3.4796718562 -3.4796718562 -3.4796718562 -3.4796718562 -3.4796718562 -3.4796718562 -3.4796718562 -3.4796718562 -3.4796718562 -3.4796718562 -3.4796718562 -3.4796718562 -3.4796718562 -3.4796718562 -3.4796718562 -3.4796718562 -3.4796718562 -3.4796718562 -3.4796718562 -3.4796718562 -3.4796718562 -3.4796718562 -3.4796718562 -3.4796718562 -3.4796718562 -3.4796718562 -3.4796718562 -3.4796718562 -3.4796718562 -3.4796718562 -3.4796718562 -3.4796718562 -3.4796718562 -3.4796718562 -3.4796718562 -3.4796718562
4.4257184089 3.6899660658 3.4965042822 4.0470113653 4.0380478849 5.3399934017 3.2671885773 2.7204162777 2.6681293091 2.6449736516 2.5277014507 2.2991327025 2.2707483482 2.6457206083 2.0451674267 2.0451674267 2.0451674267 2.0451674267 2.0451674267 2.0451674267 2.0451674267 2.0451674267 2.0451674267 2.1721500646 2.0451674267 2.0451674267 2.0451674267 2.0451674267 2.3768161986 6.0682761778 5.721688272 2.5493631948 1.8412482494 1.8636569502 2.8070632541 2.4993170964 1.9181847889 1.1380878299 0.1836044324 -2.3618295621 -3.4796718562 -3.4796718562 -3.4796718562 -3.4796718562 -3.4796718562 -3.4796718562 -3.4796718562 -3.4796718562 -3.4796718562 -3.4796718562 -3.4796718562 -3.4796718562 -3.4796718562 -3.4796718562 -3.4796718562 -3.4796718562 -3.4796718562 -3.4796718562 -3.4796718562 -3.4796718562 -3.4796718562 -3.4796718562 -3.4796718562 -3.4796718562 -3.4796718562 -3.4796718562 -3.4796718562 -3.4796718562 -3.4796718562 -3.4796718562 -3.4796718562 -3.4796718562 -3.4796718562 -3.4796718562 -3.4796718562 -3.4796718562 -3.4796718562 -3.4796718562 -3.4796718562 -3.4796718562 -3.4796718562 -3.4796718562 -3.4796718562 -3.4796718562 -3.4796718562 -3.4796718562 -3.4796718562 -3.4796718562 -3.4796718562 -3.4796718562 -3.4796718562 -3.4796718562 -3.4796718562 -3.4796718562 -3.4796718562 -3.4796718562 -3.4796718562 -3.4796718562 -3.4796718562 -3.4796718562 -3.4796718562 -3.4796718562 -3.4796718562 -3.4796718562 -3.4796718562 -3.4796718562 -3.4796718562 -3.4796718562 -3.4796718562 -3.4796718562 -3.4796718562 -3.4796718562 -3.4796718562 -3.4796718562 -3.4796718562 -3.4796718562 -3.4796718562 -3.4796718562 -3.4796718562 -3.4796718562 -3.4796718562 -3.4796718562 -3.4796718562 -3.4796718562 -3.4796718562 -3.4796718562 -3.4796718562 -3.4796718562 -3.4796718562
4.1187192078 3.7997686997 3.3844607782 3.2843685812 3.1394589827 4.1344052984 2.3999718561 2.3842857656 2.7159345375 2.7704623761 2.5478692815 2.0892378717 2.3327457537 2.8391823919 2.0944665685 2.0451674267 2.0451674267 2.0451674267 2.0451674267 2.0451674267 2.0451674267 2.0451674267 2.0451674267 2.0451674267 2.0451674267 2.0451674267 2.0451674267 2.0451674267 2.0451674267 3.945425255 6.2027283826 4.0813713732 3.092400711 1.3138968238 3.009488518 4.8186176296 4.744668917 2.8234963014 4.4212366687 1.0433775911 -0.0534493796 0.1021049661 -3.2508419393 -3.4796718562 -3.4796718562 -3.4796718562 -3.4796718562 -3.4796718562 -3.4796718562 -3.4796718562 -3.4796718562 -3.4796718562 -3.4796718562 -3.4796718562 -3.4796718562 -3.4796718562 -3.4796718562 -3.4796718562 -3.4796718562 -3.4796718562 -3.4796718562 -3.4796718562 -3.4796718562 -3.4796718562 -3.4796718562 -3.4796718562 -3.4796718562 -3.4796718562 -3.4796718562 -3.4796718562 -3.4796718562 -3.4796718562 -3.4796718562 -3.4796718562 -3.4796718562 -3.4796718562 -3.4796718562 -3.4796718562 -3.4796718562 -3.4796718562 -3.4796718562 -3.4796718562 -3.4479776933 -3.0682389771 -3.2349263151 -3.4527603252 -3.1531544187 -3.2995182076 -2.4521821441 -2.8178713993 -2.3939381549 -2.9050171659 -3.4796718562 -3.4796718562 -3.4796718562 -3.4796718562 -3.4796718562 -3.4796718562 -3.4796718562 -3.4796718562 -3.4796718562 -3.4796718562 -3.4796718562 -3.4796718562 -3.4796718562 -3.4796718562 -3.4796718562 -3.4796718562 -3.4796718562 -3.4796718562 -3.4796718562 -3.4796718562 -3.4796718562 -3.4796718562 -3.4796718562 -3.4796718562 -3.4796718562 -3.4796718562 -3.4796718562 -3.4796718562 -3.4796718562 -3.4796718562 -3.4796718562 -3.4796718562 -3.4796718562 -3.4796718562 -3.4796718562 -3.4796718562 -3.4796718562
4.2143296646 3.9499069951 2.9265763251 3.6877251957 4.4152610152 4.1911740071 2.9527198093 2.7816667265 2.7839075966 2.6681293091 2.2886753088 2.0668291709 2.173643978 2.6576719154 2.3678527183 2.0451674267 2.0451674267 2.0451674267 2.0451674267 2.0451674267 2.0451674267 2.0451674267 2.0451674267 2.0451674267 2.0451674267 2.0451674267 2.0451674267 2.0451674267 2.0451674267 1.8741143439 2.4455362144 4.3502757828 4.4720297239 3.0147172149 5.8665978706 7.186470348 7.3859077851 6.6751034474 5.2627169639 2.4284170235 2.8837280798 4.4320979473 1.9196421528 -0.9024983451 2.4394899192 0.0763970018 -3.4112105519 -3.0282780226 -2.3678076728 -3.2536845927 -3.4796718562 -3.4796718562 -3.4796718562 -3.4796718562 -3.4796718562 -3.4796718562 -3.4796718562 -3.4796718562 -3.4796718562 -3.4796718562 -3.4796718562 -3.4796718562 -3.4796718562 -3.4796718562 -3.4796718562 -3.4796718562 -3.4796718562 -3.4796718562 -3.4796718562 -3.4796718562 -3.4796718562 -3.4796718562 -3.4796718562 -3.4796718562 -3.4796718562 -3.4796718562 -3.4796718562 -3.4796718562 -2.96854012 -3.4158374654 -3.4796718562 -3.4796718562 -3.4796718562 -3.4796718562 -3.4796718562 -3.4119469636 -3.4796718562 -3.4796718562 -3.4796718562 -3.4796718562 -3.4614334588 -3.4071643318 -3.4796718562 -3.429293231 -2.9728369639 -3.3768083639 -3.4796718562 -3.4796718562 -3.4796718562 -3.4796718562 -3.4796718562 -3.4796718562 -3.4796718562 -3.4796718562 -3.4796718562 -3.4796718562 -3.4796718562 -3.4796718562 -3.4796718562 -3.4796718562 -3.4796718562 -3.4796718562 -3.4796718562 -3.4796718562 -3.4796718562 -3.4796718562 -3.0537669983 -3.1935428053 -3.4796718562 -3.4796718562 -3.4796718562 -3.4796718562 -3.4796718562 -3.4796718562 -3.4796718562 -3.4796718562 -3.4796718562 -3.4796718562 -3.4796718562
3.9319800345 5.5297204018 4.3659618734 5.3892925435 5.3922803702 4.0470113653 2.378310112 2.4642101318 2.6815745296 2.8384354352 2.1362961433 2.0675761275 2.1684152812 2.5740127657 2.5919397264 2.0451674267 2.0451674267 2.0451674267 2.0451674267 2.0451674267 2.0451674267 2.0451674267 2.0451674267 2.0451674267 2.0451674267 2.0451674267 2.0451674267 2.0451674267 2.0451674267 1.8419952061 2.8810119667 2.1818605017 2.7047301871 6.3670588552 6.993755521 6.4395136545 3.5180799252 -0.6897341401 -3.4730944193 -3.0698277958 -3.4730944193 -3.0688010375 -3.1303734681 -3.4796718562 -2.6819277383 -2.0596551731 0.1738767952 1.9177507016 -0.987052082 -2.5146069817 -3.1787277547 -1.8655445116 -3.4049234617 -3.4796718562 -3.4796718562 -3.4796718562 -3.4796718562 -3.4796718562 -3.4796718562 -3.4796718562 -3.4796718562 -3.4796718562 -3.4796718562 -3.4796718562 -3.4796718562 -3.4796718562 -3.4796718562 -3.4796718562 -3.4796718562 -3.4796718562 -3.4796718562 -3.4796718562 -3.4796718562 -3.4796718562 -3.4796718562 -3.4796718562 -3.4796718562 -3.4796718562 -3.4796718562 -3.3337646773 -3.4796718562 -3.4796718562 -3.4796718562 -3.4796718562 -3.4796718562 -3.4796718562 -3.4796718562 -3.4796718562 -3.4796718562 -3.4796718562 -2.4350021401 -3.439003668 -3.4796718562 -3.4796718562 -3.4796718562 -3.448278585 -2.9331217187 -3.1945801086 -3.4796718562 -3.4796718562 -3.4796718562 -3.4796718562 -3.4796718562 -3.4796718562 -3.4796718562 -3.4796718562 -3.4796718562 -3.4796718562 -3.4796718562 -3.4618795239 -3.1962086503 -3.4796718562 -3.4796718562 -3.4796718562 -3.4796718562 -3.4796718562 -3.4796718562 -3.3479673995 -3.4796718562 -3.4796718562 -3.4796718562 -3.4796718562 -3.4796718562 -3.4796718562 -3.4796718562 -3.4796718562 -3.4796718562 -3.4796718562 -3.4796718562
4.1896800937 6.0152422526 6.0406387802 6.993755521 4.4324410191 3.0909067976 2.368599675 2.4276092538 2.6942727934 2.8063162974 2.8287249982 2.5844701594 2.0630943874 2.0451674267 2.1728970213 2.0541309071 2.0451674267 2.0451674267 2.0451674267 2.0451674267 2.0451674267 2.0451674267 2.0451674267 2.0451674267 2.0451674267 2.0451674267 2.0451674267 2.0451674267 2.0451674267 3.6585938847 5.980135288 3.852802625 3.0341380889 4.4264653656 3.6197521366 5.8023595949 3.1669997342 1.8610955311 -1.1337881207 1.0817602719 0.5388605575 -0.4275741471 -0.5048853934 2.4483746699 4.4097792374 2.4684314196 6.1955677953 5.2040472835 3.5644773413 3.1694613337 2.6071375718 -0.6551607743 -2.8941031622 -3.4796718562 -3.4796718562 -3.4796718562 -3.4796718562 -3.4796718562 -3.4796718562 -3.4796718562 -3.4796718562 -3.4796718562 -3.4796718562 -3.4796718562 -3.4796718562 -3.4796718562 -3.4796718562 -3.4796718562 -3.4796718562 -3.4796718562 -3.4796718562 -3.4796718562 -3.4796718562 -3.4796718562 -3.4796718562 -3.4796718562 -3.4796718562 -3.4796718562 -3.4796718562 -3.4796718562 -3.4796718562 -3.4796718562 -3.4796718562 -1.7164589789 -2.2280026879 -3.2896836873 -1.5561884451 1.0434099425 -0.9110554834 -0.3451477421 3.5170970878 -0.0562758574 -2.1316160965 1.1082109949 1.3703878799 -0.6194488528 -2.6122336893 -3.3149244966 -3.2149142028 -3.0190533735 -3.0925982013 -3.2335775751 -3.420920989 -3.4796718562 -3.4796718562 -3.4796718562 -3.4796718562 -3.4796718562 -3.4796718562 -3.4796718562 -3.4796718562 -3.4520133685 -3.4053695267 -3.4796718562 -3.4796718562 -3.4796718562 -3.4796718562 -3.40462257 -3.4796718562 -3.4796718562 -3.4796718562 -3.4796718562 -3.4796718562 -3.4796718562 -3.4796718562 -3.4796718562 -3.4796718562 -3.4796718562 -3.4796718562
4.5474723499 5.4953603939 6.3678058119 6.1474535873 4.1194661645 3.0901598409 2.5657962421 2.5135092736 2.8645789195 2.5389058011 3.9043426368 4.9119872163 2.1318144032 2.0466613401 2.0451674267 2.1355491867 2.0451674267 2.0451674267 2.0451674267 2.0451674267 2.0451674267 2.0451674267 2.0451674267 2.0451674267 2.3730814152 2.5314362342 2.9407685022 2.7144406241 2.2012813757 4.345047086 5.4722047364 2.7973528171 3.2246120457 4.5997593184 3.0737267937 5.5722969334 4.744668917 5.6649195633 5.1136655236 3.3590642506 4.2232931449 4.9411185274 6.360336245 8.4338880261 8.2904723409 10.9010859846 11.6607409419 7.3015016788 5.4266403781 5.1017142165 3.9911720524 -2.1469169351 -3.4796718562 -3.4796718562 -3.4796718562 -3.4796718562 -3.4796718562 -3.4796718562 -3.4796718562 -3.4796718562 -3.4796718562 -3.4796718562 -3.4796718562 -3.4796718562 -3.4796718562 -3.4796718562 -3.4796718562 -3.4796718562 -3.4745883327 -3.4156817471 -3.1403215266 -2.6168637763 -2.7997887203 -2.7024864516 -2.7778788097 -2.9714038635 -3.4796718562 -3.4796718562 -3.4796718562 -3.4796718562 -3.4796718562 -3.4796718562 -1.9520009611 3.8802818471 5.1402315256 4.849077307 5.0629413693 6.2660323481 4.3039644678 4.3039644678 6.6307004757 9.4835787118 9.8487326274 9.724898449 11.6368383277 8.7692715814 4.4818674176 1.2252033941 -2.5892102029 -3.4796718562 -3.4796718562 -3.4796718562 -3.3412342442 -3.4796718562 -3.4796718562 -3.4796718562 -3.4796718562 -3.4796718562 -3.4796718562 -3.4796718562 -3.4796718562 -3.4796718562 -3.4796718562 -3.4796718562 -3.4796718562 -3.4796718562 -3.4796718562 -3.4796718562 -3.4796718562 -3.4796718562 -3.4440871915 -3.4796718562 -3.4796718562 -3.4796718562 -3.4796718562 -3.4796718562 -3.4796718562 -3.4796718562 -3.4796718562
6.6606128358 4.9799602754 6.1765848984 5.6126325948 3.7833356525 4.3786601372 2.8429171754 2.7039832304 3.1790476874 5.1330863976 5.1823855394 6.1310205401 2.8817589234 2.4231275136 2.0847561315 2.0451674267 1.9876517613 2.024999596 2.0451674267 2.0451674267 2.0451674267 2.0451674267 2.0190239425 2.2729892183 4.2113418378 4.8029315391 7.2238181826 5.9689309376 4.8776272084 4.3525166529 3.8976200266 2.1975465922 3.453180794 5.3071273072 5.5237447483 5.7179534886 7.4972043324 7.3903895253 6.4910536663 6.4828371427 6.8182206981 10.6501085356 13.0859343131 12.1925741077 14.4551059322 14.5888111803 14.9473503932 10.5149093741 10.5119215473 7.5278295569 4.2492710821 -0.8658682892 -2.9413301544 -3.4796718562 -3.4796718562 -3.4796718562 -3.4796718562 -3.4796718562 -3.4796718562 -3.4796718562 -3.4796718562 -3.4796718562 -3.4796718562 -3.4796718562 -3.4796718562 -3.4796718562 -3.4796718562 -3.1600643824 0.5275208625 0.6225822611 1.3138968238 0.4930051362 1.1806457286 -1.6416423998 -1.2060190171 -1.0944085758 -3.4796718562 -3.4796718562 -3.4796718562 -3.4796718562 -3.4796718562 -2.4953418261 3.6265014676 3.947666125 4.3017235977 6.9123372415 8.1063673775 9.2884064834 5.4266403781 7.0325972691 9.4213647748 11.0093947052 11.7345233912 12.4390698165 12.1664306234 7.8729235493 7.2484677535 6.1616457645 3.2252623563 -3.1860335154 -3.4796718562 -3.4796718562 -3.4745883327 -3.2968207275 -3.292183269 -3.3037096011 -3.4796718562 -3.4796718562 -3.4796718562 -3.4796718562 -3.4796718562 -3.4796718562 -3.4796718562 -3.4796718562 -3.4796718562 -3.4796718562 -3.4796718562 -3.4796718562 -3.4796718562 -3.4796718562 -3.4796718562 -3.4796718562 -3.4796718562 -3.4796718562 -3.3470647245 -3.1751381445 -3.4796718562 -3.4796718562 -3.4796718562
7.8243713642 5.3429812285 4.4249714522 4.5482193066 4.6841654248 2.683068443 2.5112684035 2.2192083363 3.0498241795 3.0065006913 4.7005984721 4.9904176691 3.2417920497 2.6091197303 3.862513062 2.1131404859 7.7085930767 5.368377756 2.0757926512 2.0451674267 2.0451674267 2.0451674267 2.673358006 4.959045488 7.373956478 8.3300610457 10.3617832519 8.1112027345 7.5248417301 6.5448345483 5.7784569808 4.9747315786 8.3397714827 8.6228680695 9.7522665901 9.5139874048 10.4237806575 11.7451470483 12.2807149975 9.3533917157 13.2801430534 15.2117730627 15.2409043737 15.4067287597 14.8607034168 12.8820151357 15.2580843777 13.0112386437 7.0121819882 1.701978296 -2.4174839787 -3.4796718562 -3.4796718562 -3.4796718562 -3.4796718562 -3.4796718562 -3.4796718562 -3.4796718562 -3.4796718562 -3.4796718562 -3.4796718562 -3.4796718562 -3.4796718562 -3.4796718562 -3.4796718562 -1.8894731302 -2.2419150635 0.259506842 0.8400317355 0.5015784503 2.2863395334 1.9528432313 1.6408083175 -0.3906301972 2.1545531736 -1.0105880771 -3.456204762 -3.4796718562 -3.4796718562 -3.4796718562 -2.3979073863 4.5055429554 6.4970293199 5.8800430911 5.7859265477 8.0775896833 11.933380135 11.9176940445 9.0800055659 11.1595330006 12.9029299232 13.2539995691 13.1815447698 13.763424034 11.6883783396 8.6505054672 8.3158688685 7.5285765136 6.9390378718 4.9227332158 -2.9440462675 -3.2775555718 -3.3373542874 -3.3062619079 -3.2789043119 -3.0087622432 -3.2410682321 -3.4796718562 -3.4796718562 -3.4796718562 -3.4796718562 -3.4796718562 -3.4796718562 -3.4796718562 -3.4796718562 -3.4796718562 -3.4796718562 -3.4796718562 -3.4796718562 -3.4796718562 -3.4796718562 -3.4796718562 -3.4796718562 -3.4796718562 -3.4796718562 -3.4170304871 -3.4745883327 -3.4796718562 -3.4796718562
7.8079383169 6.5889049932 4.810401106 4.5683871373 4.1217070346 2.6815745296 3.2739111875 2.6599127855 3.0610285299 3.1013641913 3.648136491 5.0591376849 4.1351522551 3.1820355142 2.9519728526 3.1424468095 4.132911385 4.7200193461 3.1080868016 3.1140624551 2.0451674267 2.0481552535 4.6572749838 7.4725547616 8.9739377155 10.4036128268 12.147756706 8.9829011958 8.5660993608 7.7235322106 7.2051442653 8.7939211523 10.6262059214 13.6140326953 13.2510117423 13.410113518 13.2547465258 16.0954228311 14.6739642434 14.6493146725 15.2663009013 15.3387557006 15.1012234721 15.4537870314 14.9070147318 16.6541464378 13.5333613725 6.8613413734 -2.7057484493 -3.4796718562 -3.4796718562 -3.4796718562 -3.4796718562 -3.4796718562 -3.4796718562 -3.4796718562 -3.4796718562 -3.4796718562 -3.4796718562 -3.4796718562 -3.4796718562 -3.4796718562 -2.9600146168 -1.5742468605 0.1396960529 4.1468715714 5.3018353401 3.3989383876 3.6070538728 2.7616416119 2.3071228661 2.5131767468 2.3347156264 1.2321604523 1.9605641382 -0.4710874459 0.4730180038 -1.1561676436 1.9347514399 1.6398673522 5.506185123 8.1687183999 9.3720656331 9.9666431611 9.3108151842 13.8194457861 15.3462252675 14.2646319754 14.9301703893 14.1593110816 15.0593938972 14.8360538459 14.3594954754 13.9479223373 12.6340255135 13.3750065534 11.0340442761 7.6578000215 7.5907190925 7.4932294703 0.5420803751 0.2620689775 0.5543406617 3.1699868446 3.2284368202 3.2315916267 -0.2820019521 -3.4796718562 -3.4796718562 -3.4796718562 -3.4796718562 -3.4796718562 -3.4796718562 -3.4796718562 -3.4796718562 -3.4796718562 -3.4796718562 -3.4796718562 -3.4796718562 -3.4796718562 -3.4796718562 -3.4796718562 -3.4796718562 -3.4796718562 -3.4796718562 -3.4796718562 -3.3789040607 -3.1993416504 -3.3264297387
10.8801711972 7.6473426278 6.2475457843 3.4636381877 3.6862312823 4.1784757433 5.1061959566 5.283224693 6.2415701307 4.439910586 6.0122544258 7.4015938757 6.9989842179 6.5022580167 5.7724813272 7.5233478167 4.6923819484 6.3005797095 5.9913396384 4.7984497989 3.6810025855 4.7857515351 9.4863500072 9.898670102 11.7951931467 12.8760394822 12.8103072932 13.103114317 10.6262059214 10.344603248 12.4413106866 13.770893601 13.5146874551 15.0705982476 14.319159814 13.9837762586 15.4507992046 16.0408949925 14.4991763771 15.3731157085 14.7927303577 14.8188738419 15.703270567 15.3663930982 14.7800320939 12.2747393439 8.3360366992 4.8868972111 0.0875015325 -0.9031999482 0.8577379667 0.709703456 0.7960917209 1.328872199 3.085837709 0.0013378869 -2.5456912734 -3.4442534549 -3.4796718562 -3.4796718562 -3.4796718562 0.1027756504 0.2226820611 4.6767703895 4.4032496114 5.5096506499 6.845111139 3.8632178385 2.8556154392 3.9192817707 4.1106721211 3.105313049 1.8124111749 1.8876875375 0.7678704564 2.0290075259 4.4986808025 7.1062450901 6.6777928397 9.4555163392 10.4328154959 13.344381329 14.8345599325 15.32306961 14.9122434286 16.6795429654 16.8871969262 17.1882204736 16.1312767524 15.0250338893 14.5664024795 14.3833980896 14.599268574 14.2228024005 14.2855467628 11.7496287884 11.7391713947 7.7033643798 7.6085008798 6.8488459225 3.4322660065 2.9980019088 4.7466088954 5.2705264292 5.0075976731 4.0522400621 4.8350506769 0.5628710793 -2.7847360482 -3.4796718562 -3.4363167329 -3.4796718562 -3.4239088157 -3.4796718562 -3.4796718562 -3.4796718562 -3.4796718562 -3.4796718562 -3.4796718562 -3.4796718562 -3.4796718562 -3.4796718562 -3.4796718562 -3.4796718562 -3.4796718562 -3.4796718562 -3.4796718562 -3.4796718562 -3.387878086
14.2691137155 10.3184597637 8.1515383959 4.7469097871 6.2789179654 6.4835840994 7.0983294581 8.4637662938 9.294382137 8.2792679905 8.6288437231 9.4019439008 8.858159428 12.3666150172 13.4788335338 9.4863500072 6.0174831227 8.2157766716 10.9548668666 11.9176940445 12.8723046987 14.0928319359 13.9882579988 14.7441781726 15.7167157875 15.2894565588 14.6157016213 16.2948602682 13.4437265692 15.4097165865 15.7025236103 14.9264356058 15.2931913423 17.2546996194 17.7447032103 18.7949243213 15.9221288782 16.5869203354 18.4369763468 20.9312204647 19.9063958812 18.2085633169 22.4774208202 19.5217131841 14.4834902866 11.2304938865 9.620802212 11.2824985962 11.2548425657 12.8760394822 11.9162001311 13.9740658216 12.0095697178 9.2361195149 9.981582295 6.8234493949 7.3007547221 4.6075410384 0.3549225738 -2.9262880274 -3.4708535492 4.1824959591 3.588533933 6.1659985071 4.3104339972 4.4613825195 6.5351241112 4.0776365897 3.6914599792 2.8055060705 5.0100687931 3.599967817 2.4987297479 1.7851752049 4.9731273005 4.8289330235 7.0781616274 8.2456549393 12.369602844 13.130004758 15.8429514687 17.8806493285 17.2883126706 17.143403072 16.1088680516 16.5129716227 19.8414106489 20.7639021653 17.484762281 15.3447313541 15.164714791 14.8315721057 13.9927397389 14.1369023808 13.4026439511 10.6486146222 9.8859718382 8.180669707 7.1416529464 4.932155047 4.4182488419 6.0749987881 4.9433593974 3.8640069754 3.9640991723 3.7153625934 3.1633615969 2.3290109703 1.0291544951 -3.4796718562 -3.4796718562 -3.4796718562 -2.8325201865 -1.7973208288 -0.4414921533 -2.3548587854 -3.2678345898 -3.4796718562 -3.4796718562 -3.4796718562 -3.4796718562 -3.4796718562 -3.4796718562 -3.4796718562 -3.4796718562 -3.4796718562 -3.4796718562 -3.4796718562 -3.4796718562
15.2775052517 11.7802540129 8.7229602664 9.9442344603 11.7966870601 10.4215397874 10.1235040667 10.4962354568 11.6286218041 12.6414950804 14.9204599522 13.1912552068 13.9016110223 14.5298016016 15.9669462798 15.7645210159 15.2648069879 17.4907379345 18.4826964234 23.9638646402 19.5239540542 19.4791366525 18.6403042858 19.8541089127 21.6557684573 22.3026329539 17.401850088 17.3697309502 19.6270340779 21.5205692958 22.3429686153 22.4482895091 22.8516461236 22.8494052535 25.4017562751 25.7744876652 23.8787115771 25.1896205742 26.4601939098 24.8385509283 23.4372601713 23.3057957932 24.9722561764 20.4412168737 14.8808712475 16.4576968274 19.843651519 20.040848086 19.0234930695 21.8925537292 20.8953665434 19.6225523377 16.9282795443 15.4321252873 15.2887096021 7.5158782498 4.800690669 6.4910536663 5.2657437973 4.4642624388 -2.2778744351 3.3704728465 5.148100063 5.1350133738 4.5371763052 6.12877967 5.5767786735 4.0186270109 3.9118122037 2.7039255909 4.0242367617 2.2948900165 3.2319216963 6.8065678255 4.0485052787 7.0512711864 7.4479051907 10.1608519014 14.0002093059 16.6339786071 18.2317189744 16.2709576541 20.3590516375 20.3881829485 19.6905253968 17.4631005368 19.816761078 19.0287217664 15.7167157875 19.0436609002 16.8528369183 14.0883501957 15.5015922598 18.5872703605 15.6367914213 11.1894112683 13.8470831837 10.1122997163 7.578622612 5.9524978903 6.1870422921 7.7205443838 5.1054489999 4.6378541098 5.2966699135 4.8604472045 4.7409341335 4.7917271887 3.5186922536 -3.4796718562 -3.4796718562 -2.8777333851 1.3144490555 0.8169864427 1.9713800631 0.3189698574 -1.1469672581 -1.2358941113 -3.2391493437 -2.0831936254 -3.4796718562 -3.4796718562 -3.4796718562 -3.4796718562 -3.4796718562 -3.4796718562 -3.4796718562 -3.4796718562 -3.4796718562
12.1626958399 11.2768052015 10.7696216066 16.8505960482 17.9478754309 11.487446989 12.6616629112 14.4663102826 13.3742595967 16.9641334656 15.8915036538 19.0122887191 19.7039706173 22.258562509 26.4220991184 22.2017938003 22.2540807688 24.2611534042 25.6908285155 29.0782771204 27.3236758475 28.32385086 28.6315970177 28.0258151393 29.8013311997 28.8855622935 23.6479019588 28.6861248564 30.1770504165 28.2663351946 26.3347051853 28.9878953605 26.0321877244 28.4762300255 32.8563840761 31.2407167481 31.9667586541 33.448720734 27.8435577061 29.5624502311 26.1830729765 25.8185581101 24.6017656564 25.387564098 18.0038971829 22.3549199224 24.719784814 24.2753455814 25.148537956 23.1452001041 22.4706982099 21.4384040595 16.9170751939 17.8037127891 16.0222210751 10.6680354963 6.4230806072 4.9157219998 5.8471769966 5.0603096166 2.202839992 0.6455706307 7.2754717327 3.5316435982 4.9496229405 5.9711718077 5.3788351497 4.4786574288 5.3516016369 2.4685108655 4.8955808898 2.8974935412 7.0203450703 6.8506171803 6.6748050129 6.8383885288 7.6047660963 9.3578734559 13.0403699548 20.2806211846 20.7691308622 20.7146030236 22.8352130763 23.4432358248 23.986273341 21.8507241543 22.1666868357 21.1142248546 19.3715748887 19.2804461721 19.3185409634 16.6033533826 19.6845497432 21.7595954377 16.205225465 13.5565170299 13.0015282067 10.819667705 8.3733845339 6.650155442 6.7255980681 7.5360460805 6.2557623079 7.3567764741 6.7621989461 7.678714809 6.4977762766 6.8157713845 1.8557954761 0.1714113059 -1.0208735767 4.4825721942 6.6591189224 5.4084944289 2.6296946194 3.0441234132 2.7918580372 0.6604531495 -0.1592374285 -0.5846993949 -1.4946792847 -3.4599395455 -3.4796718562 -3.4796718562 -3.4796718562 -3.4796718562 -3.4796718562 -3.4796718562 -3.4796718562
13.1479317186 12.4898628717 15.6875844764 19.3655992351 19.3641053217 17.4862561943 18.2436702815 19.6942601803 19.1721374515 21.8559528512 21.8634224181 21.1194535514 23.0607939978 23.5448219351 23.3603236319 24.2238055695 21.9821885324 33.6324720806 37.8251400011 31.3654585159 29.8498833848 27.0331096937 27.9204942455 35.9794100115 36.2781926889 33.7243477539 26.7193878824 29.8050659832 37.3650146779 32.9706684502 31.1600454252 32.3140935166 32.4664726821 33.2022250251 36.1213317833 38.3270948991 38.2411948793 36.58743276 23.2572436082 26.5117339216 33.923785191 30.3727530702 27.9182533755 23.104117486 23.0324096434 23.4088758169 23.3035549232 22.6103791116 23.3670462421 23.5679775926 21.4346692761 17.2180987414 19.268494865 16.3725437644 15.4754487755 10.1668275549 5.8210335123 5.378088193 5.0321920616 3.7824628717 6.8282717497 4.9542052166 5.7866735044 5.0403825808 6.8129920012 5.0337411574 4.7364523933 4.9971061871 5.2602961119 1.5766291141 2.1587769186 3.3481502468 6.8010406941 8.9619864084 10.1481536376 11.14384691 15.0571530271 11.8624192491 15.6099009803 24.5240821603 27.1884766859 30.171074763 27.468585446 28.2655882379 29.3165563057 28.0400073165 23.2833870924 22.9792199998 20.7758534724 19.9997654679 19.863072393 21.2725796736 17.6513336236 20.4008812123 16.6212803433 12.7654898916 13.8552997073 13.5639865969 9.5700091569 7.8512618052 7.8154078839 7.8968261635 6.7308267649 8.309893215 9.6028752514 8.7139967861 7.817648754 8.0604096793 6.7404739317 7.1491225133 6.630734568 9.5483474127 8.124647955 6.3761569638 5.7131553974 8.0088696675 6.8174396491 6.7508072422 1.4716959295 0.5563407368 0.8887688169 -3.2654380013 -3.4796718562 -3.4796718562 -3.4796718562 -3.4796718562 -3.4796718562 -3.4796718562 -3.4796718562
24.217829916 22.1816259695 26.9576670677 29.9238320975 30.0194425542 34.6714888412 33.2567528638 30.8261557832 31.1324080275 30.6125261688 30.9292358069 28.0153577456 29.7027329162 29.2388728095 25.9672024921 28.9878953605 29.2052597583 35.4886594639 36.2498083345 34.4854966245 34.0716826163 33.9499286753 34.8701793217 41.3022234092 40.6829963103 33.3471346237 35.1293732943 41.2484425273 44.1570918917 35.0091132667 33.8744860493 37.0946163549 40.5044736606 41.8624409293 40.3520944951 36.012276106 38.7326923837 36.4455109882 31.7337081658 31.2840402363 30.3899330742 27.1720436387 26.6372226462 23.8256776519 20.5704403817 24.6615221919 25.8499302912 23.6015906439 23.4648975689 22.528960832 24.2394916601 21.1508257325 18.2145389705 15.9587297562 16.1506976264 6.5463284616 4.1463566055 5.7112308783 6.0761707197 5.2169304435 6.7831137335 7.122979029 7.5113965096 4.6689366606 4.8145714094 3.1738189906 6.0040379022 6.4340132439 4.1721496464 1.2593096048 3.1259585799 4.1590548693 7.624933927 8.6370602467 11.7354366112 14.0920849792 16.9648804223 20.3866890351 23.03091573 26.7477722368 31.7471533862 30.7029079288 30.2472643457 30.55127572 30.5602392003 30.1890017236 24.3007421089 23.5135949273 23.1564044545 22.5745251903 22.4251338516 18.5230320849 14.5193442078 14.7695747002 15.5120496535 15.079561728 14.3721937392 12.0872532139 12.1865984541 10.3849389094 10.6807337601 10.6045441773 9.5498413261 10.0898910155 9.8000718184 10.3505789015 9.3190317078 8.6878533019 11.3843669653 12.3023767416 12.0857593005 11.8654070759 7.6697513286 7.6368852341 8.5593767506 8.4391167229 12.4958385252 8.5959776286 2.6217789875 4.8895152453 2.9611454928 -2.7596825925 -3.4796718562 -3.4796718562 -3.4796718562 -3.4796718562 -3.4796718562 -3.4796718562 -3.4796718562
37.6615564852 31.2728358859 36.7502693192 38.5414714701 35.4550464127 41.6577747953 40.85927809 37.9670617728 41.816876571 41.2140825194 37.6862060561 38.2665914069 35.8643786807 32.8937319107 30.9479097242 38.4727514543 38.8484706711 35.5521507828 41.8945600672 41.9953992208 47.1688212798 51.1926769876 44.9608172939 40.6023249874 47.4877717879 48.8711355842 43.8500926907 46.7542603149 46.8364255512 42.6101445795 38.0118791744 38.9052393798 43.6364630763 45.6345722314 47.0276464647 47.0134542876 45.438122621 44.9690338175 40.3618049321 32.1437873905 28.2954665057 25.3188440822 25.1985840545 23.3416497145 24.0258620457 23.7106463211 25.6863467754 23.3991653799 21.8327971937 20.8236587008 19.4978105699 16.4771177015 12.3882767613 9.2069882038 5.6283186854 3.6795086721 5.8382135162 6.2228962134 6.3954432096 6.4178519104 6.7255980681 5.4288812482 7.3134529859 6.0077621406 4.1937822126 3.7870704359 5.6335473822 5.0011629523 2.6295712525 4.1648301672 4.3540105663 6.8884346273 7.9879548801 7.5121434663 13.6244900891 17.2756144068 20.3433655469 25.6587093777 28.6174048406 31.5036455042 36.2789396456 37.8587530523 34.1590765495 32.547144005 31.499163764 30.4130887317 29.456984164 27.1585984182 25.0275309717 23.4088758169 23.976562904 20.2417794366 15.3544417912 15.4276435471 15.7353897048 14.3124372037 13.7163657624 12.0267497217 15.3387557006 13.1270169312 12.6056411591 15.5329644409 14.9570608302 13.1800508564 12.9044238365 12.4457924267 9.9965214288 11.8220835877 13.7753753411 13.8418544869 16.9081117136 10.373734559 8.9843951092 8.0335192384 8.6393011168 11.2775521581 11.79444619 7.4747956316 6.3406647473 5.962955284 5.5486003055 -2.0219561787 -3.4796718562 -3.4796718562 -3.4796718562 -3.4796718562 -3.4796718562 -3.4796718562 -3.4796718562
47.4683509139 40.3139997037 45.22374605 42.5399306503 41.3814008187 43.8665257379 45.1699651681 47.1419308388 46.1290575625 43.4146169384 44.3572762856 45.484433936 39.5431403961 35.6455203695 34.0694417463 43.2667195131 45.4060034832 39.1158811674 45.87434533 39.5707777937 43.0762455562 46.7019733464 44.4020936872 45.3895704359 45.391811306 44.119744057 44.9944303451 45.8855496804 38.9799350492 39.8807648215 38.3756470842 41.1842042517 45.1296295066 46.5660272282 46.6325063739 43.7096648323 43.7716622379 38.5743375646 33.9805538997 31.284787193 25.8633755117 24.6458361013 20.8363569646 27.5305828516 23.3229757972 26.018742504 27.0256401268 27.3550480286 27.263919312 17.3906457376 14.9981434484 14.0397980106 11.1699903943 5.2899473032 6.1922709889 5.7724813272 6.1900301189 7.2858155882 8.319603652 7.8281061477 7.4314721434 5.1614707519 8.2075601479 6.0436266069 3.8339550727 4.73719935 4.262134893 3.9556165656 2.5165983527 6.6934789303 7.1633146905 11.116956469 13.354091766 13.3032987109 19.0787678648 25.2538588498 26.1621581891 31.5858107404 33.0692667337 35.834500413 38.7080428128 39.2473455455 39.1913237935 38.480967978 37.5704277686 36.7375710554 35.1226506841 35.1906237432 30.4691104837 25.5324736965 26.9098618393 23.0682635647 17.2584344028 18.7598173567 20.8348630512 17.7387275567 14.8554747199 14.9077616885 15.703270567 14.2833058927 15.2140139328 17.8343380135 16.5839325086 15.3536948345 14.9682651806 14.7509007828 14.0666884516 14.2213084871 14.5424998653 16.6182925165 15.4127044132 11.8908036035 13.9972214791 11.8586844657 9.1703873258 12.4562498205 9.5752378537 7.5330582537 7.8512618052 4.7984497989 7.2873095016 9.2279532592 3.1483711705 0.5207469598 -0.6452053443 0.9764506395 0.1444600519 -2.2456498469 -1.8759881868
54.5233568838 48.8143668755 47.0605125593 44.1406588444 45.3447530343 47.0455734254 48.1488284616 44.0017248995 41.8415261419 41.863187886 49.2453608877 50.6048220698 48.6291216156 48.9757095213 44.8211363922 46.1940427948 47.6595718274 41.9356426853 44.4879937069 43.0657881625 42.3569262604 40.0727326918 42.0708418468 47.6692822644 43.3824978006 45.1199190696 40.6060597709 43.6790396079 45.418701747 42.6340471937 44.4035876005 46.8670507756 52.4057346578 46.1820914877 41.9841948704 44.9354207663 47.073210823 38.797677616 34.323407022 33.0998919581 31.3863733033 29.846895558 30.4825557042 28.1251603796 26.4079069413 29.5271980932 29.3471815301 34.962054995 34.2823244039 22.304873824 21.1261761617 18.7090243016 13.3936804708 11.1729782211 17.4429327061 16.5473316306 15.6823557796 15.9953306342 14.0539901878 13.6020813883 10.7419842089 7.6794617657 7.483759112 9.3063334441 4.414517232 3.465132101 3.3732564278 2.318826723 5.0061726606 7.6085008798 8.4323941127 13.2442891321 17.7850388717 19.8145202079 23.9272637622 30.8104696926 28.991630144 31.6074724846 37.376965985 40.786076334 42.170187087 40.4835588732 44.3826728131 40.3872014597 43.2166734146 38.873120242 38.2389540093 37.2148763825 33.2298624228 29.2336441127 26.0374164213 22.9980496355 21.6475519337 22.7791913243 22.4766738635 18.8666321639 17.1456439421 18.3534729155 17.9934397892 15.5142905236 17.2375196154 19.4022001131 16.9215569341 14.8158860152 14.9413747397 15.1131747792 14.8001999246 14.4095415739 16.2291280792 16.4524681306 14.0816275855 13.8060005656 14.7068303379 9.9360179367 10.0794336218 10.2781241023 8.3001827779 8.0940227305 12.8581125215 7.9438844351 7.6675104586 11.9057427374 10.578400693 7.3893100418 4.8431933853 4.847001984 6.8077633044 6.7569702492 6.4148640836
56.720903476 51.7753032085 51.5758657713 48.1846823829 52.1726841694 46.9156029607 46.2664975941 49.3066113365 49.7084740376 48.1899110798 49.1206191199 48.3153998043 52.5484033862 50.1738280577 48.7874764346 48.0323032175 50.4322750736 43.8411292104 45.0736077546 44.6635285299 52.4991042445 43.9195596632 47.5445404966 46.4151419761 42.6945506859 45.5128182904 45.4299060974 45.3581982548 45.2879843256 46.0409166727 49.4335939744 51.937392811 54.3418464073 52.8964852054 49.673367073 47.4115822052 49.5277105178 44.1847292894 40.7509693694 36.4574622953 36.5717466694 31.321388071 26.3055738742 23.8017750377 20.8550308819 20.1685776806 23.6867437069 21.6430701936 21.8088945795 24.1192316324 25.0088570544 17.1986778674 20.3792194682 26.74478441 27.0487957843 26.9292827133 26.7888548549 25.138827519 21.5160875557 20.4300125233 17.2666509265 10.5657024293 12.6041472458 15.2857217754 6.7374414677 4.2964949009 3.5413216838 2.1624224274 6.0525900873 9.3152969244 10.6172424411 13.288359577 20.1947211649 22.5797538872 25.5406902201 33.4957790057 32.8511553792 30.9867514723 38.1463313793 44.926457286 45.3716434753 48.1234319341 46.8692916457 46.7064550865 45.6211270109 41.7944678702 43.152435139 42.2613158036 37.3463407606 34.0403104352 29.4786459081 24.227540353 25.555629354 25.0529274993 21.6669728077 19.7204036645 18.1316267775 23.0159765962 21.1889205239 18.5902581873 21.8440015441 20.0049941648 17.7827980017 16.5159594495 16.8319221309 17.6431171 16.1641428469 16.3986872486 16.0543402129 16.6690855717 13.5595048567 15.2020626257 15.006359972 9.7194004955 9.452736956 8.0902879471 9.8665509642 13.1180534509 14.5290546449 9.0949446998 10.0129544761 14.4155172274 11.5860452726 8.2605940732 7.9408966084 7.2238181826 7.9267044312 7.5278295569 7.9655461793
55.5563979909 56.9957835392 53.5418557886 49.9826071441 49.1646895648 50.7990308101 49.5112774706 50.2186454593 51.4331970429 51.0866091371 53.1205722134 51.9224536771 51.4466422634 50.0968915182 51.1642926332 46.9522038387 46.0005810112 46.329988913 47.9135371032 54.7392273682 53.4813522964 43.6327282929 49.3021295964 53.8458671628 51.5855762083 47.5938396384 51.8268432203 52.977903485 55.3166248923 53.7435340958 55.1941239945 54.0288715527 51.0492613024 52.8606312841 53.7607140998 52.8905095519 53.6464297257 49.4791583327 40.0630222547 36.4111509803 40.1638614084 28.8459735888 26.8814774849 25.2366788459 25.238919716 23.1877766357 20.6854717125 25.3382649562 28.2319751867 27.4655976192 26.1524477521 21.7603423944 30.1135590976 30.6252244326 29.7415746642 32.2095195795 33.0961571747 30.8493114407 32.1161499928 26.0194894606 27.8211490053 25.4084788854 24.9655335661 23.057806171 12.7878985924 5.5760317168 5.0179285264 3.2973343608 5.4725980763 9.6282717789 13.6857405379 18.471492073 26.1076303505 25.4159484523 29.2254275891 33.4965259624 37.4576373079 39.5028047346 37.4075912094 42.2344253627 47.1015951774 48.4266963516 49.568793136 52.8509208471 47.9635832017 50.8640160424 56.2122259678 53.3005887766 43.3369334423 38.3749001275 33.190273718 30.1845199835 27.7935116077 27.6590594028 23.8757237504 24.2596594908 22.7209287022 27.4297436979 23.1108400962 22.697026088 22.129339001 21.5564232171 20.6219803936 19.7502819323 21.600493662 21.5033892919 20.133470716 20.3299203264 18.9876391482 17.0881282767 14.8270903656 15.5680714055 15.5105557401 13.622249219 9.5528291529 11.7122809537 14.1107588965 14.9256886491 15.3096243895 16.1910332878 15.581516626 15.201315669 13.5236509354 12.9432655846 10.4417076181 8.5578828372 10.1354553738 8.0544340258 7.9767505297
55.9328641644 53.6583810327 54.0781706945 54.5263447106 53.4918096901 55.1799318174 52.8255243195 50.7631768888 55.0432387425 60.1778190534 55.9246476408 52.3631581263 54.4516490412 50.2044532821 40.9294920192 40.3266979675 43.7328204898 43.888187482 46.135033216 47.3495847996 44.6530711362 45.9064644678 49.7428340455 51.9493441181 49.4081974469 52.5924738312 53.1900391859 58.3843760324 56.8523678541 60.714880916 58.5098647569 56.5266947357 59.4360910568 58.9057518044 63.5839415757 60.778372235 53.6643566863 41.8512365789 40.4454640818 35.6402916727 32.9333206155 35.2339472314 38.3368053361 36.8040502011 36.1332830903 27.6007967807 22.1173876939 23.1526696711 25.640782417 22.5805008439 23.698695014 29.2321501993 32.5979370601 32.1602204377 36.8174954216 37.3612798944 34.7043549357 32.0959821621 31.5581733428 29.5137528727 29.325519786 27.1033236229 26.3145373546 21.8410137173 15.3275513502 7.3866547418 4.3317445816 2.3335809606 5.5339012503 9.352644759 12.0073288477 21.571362351 28.6315970177 31.4371663584 34.5206035891 32.3297796072 40.8936380979 39.0172828839 40.1421996642 41.0295842161 47.3944022012 48.2885093633 51.2561683065 54.7549134588 55.6258649634 61.7606202869 65.1376114981 59.4555119308 54.4658412184 42.2493644966 35.5872577474 33.1178189188 30.1411964953 30.329429582 27.4558871822 25.6183737162 23.0809618285 27.4909941468 23.1474409742 23.3296984074 23.3229757972 22.4692042965 22.65818434 22.5610799698 23.3491192815 22.8344661196 22.3444625287 22.8904878717 22.6044034581 20.6189925668 15.8705888663 20.0102228616 16.1999967682 15.6853436064 15.1340895666 18.7374086559 17.150872639 16.4285655164 17.3495631194 19.6830558299 20.5323455903 16.1693715437 14.9951556216 16.2179237288 11.4247026268 9.4878439206 9.3011047472 8.1978497109 8.7789820185
50.3150028727 62.8011309609 58.9819413872 53.9922706747 53.6449358123 61.1832227629 53.9078645684 52.0718450158 53.2796739892 52.9540008708 52.3287981184 52.0120884803 57.956369847 50.6922160029 45.1087147192 41.2178173029 47.611766599 45.6450296251 49.9841010575 53.1788348355 52.7769721344 51.7312327636 51.2651317868 52.2018154805 51.854480618 55.4734857979 54.6720012658 61.2467140818 59.4682101946 58.4734090522 65.459549833 67.0774580311 58.4478673513 63.8192329341 57.4536679923 57.8465672131 51.25990309 51.0515021725 46.8028125 39.3967368842 39.2607907659 42.9589733554 41.6144513071 38.6079506158 33.0513397731 29.6900346524 25.4547902004 22.9763878914 22.7261573991 27.4992106704 29.9843355896 30.1382086685 30.5856357279 37.8557652255 35.5342238222 34.5654209907 32.1071865125 35.5073333812 33.3725311512 33.3180033126 30.2876000072 29.8730390423 26.318272138 20.874451756 14.1645397784 8.2546184196 1.9152665793 4.6567104663 6.0391448668 8.2508836362 10.0263996966 18.7284451756 28.4762300255 31.8218490556 38.6326001867 32.5822509695 37.2410198668 37.8430669617 41.0198737791 42.7117306898 46.3748063146 50.5868951092 52.8897625952 60.7484939673 64.3757156708 67.8117164608 66.9056579916 63.9678773161 56.6208112791 44.0390727341 38.0342878753 36.4305718544 34.0649600061 31.9794569179 30.6259713893 30.2099165111 25.1052144678 25.8110885432 23.2423044743 24.0534994434 24.9782318299 25.5810258816 28.4844465491 28.5412152578 25.5466658737 27.5739063398 25.7461033108 25.0491927158 23.725585455 23.4133575571 18.2526337619 22.6073912848 19.8040628142 16.1088680516 17.7125840725 20.8654882756 20.8662352323 20.810960437 23.0548183442 22.3235477413 22.4706982099 20.7616612952 15.5411809645 18.6783990771 13.6708014041 11.0952947249 8.7274420066 10.1899832124 13.0859343131
34.2165922149 31.4506115789 35.7747438775 48.6485424896 45.6181391841 63.1484658234 67.5824007559 54.9648082896 53.6875123438 51.3271291924 52.2593311459 50.8759673495 55.2060753016 48.6313624856 42.2172453587 41.7070739371 48.8031625251 47.4623752603 52.0673632756 50.2686915577 56.496816468 54.7168186674 55.4032718687 54.3605203246 51.2300248222 54.4068316396 53.0570808945 51.0051908575 57.7703776304 54.4344690373 52.3683868231 55.948550255 58.3081864497 57.8794333076 58.8893187572 51.8664319251 51.2539274364 45.6756548495 42.6385289339 39.4609751598 47.2397821657 47.814191863 45.1751938649 32.1407995637 29.6646381248 28.7070396438 26.3376930121 22.1532416152 23.7771254668 28.0452360134 27.7860420407 26.4146295515 35.6350629758 36.2789396456 32.8989606076 31.7247446854 33.1872858913 32.0324908431 32.6382727216 31.3542541655 30.7469783737 29.873785999 24.6107291367 21.3913457878 14.3378337313 5.543912579 2.864722352 4.3584923064 5.5259856184 7.3769443048 13.1195473643 22.2802242531 26.3399338821 37.0535337367 37.8430669617 29.8132825068 34.5758783844 39.0045846201 40.6269745583 45.0795834081 43.7768909347 51.4623283539 64.4100756787 75.9206783252 75.0923033521 77.3951708381 74.6635502101 65.5364863725 59.6669006751 49.6651505494 42.9515037884 41.8624409293 38.436897533 37.2051659455 35.724697779 35.4826838103 29.6668789949 26.2338660317 28.6315970177 27.1847419025 30.2031939008 32.8690823398 33.5921364191 32.0332377998 30.0627660424 31.1241915039 29.7990903296 29.9970338534 25.7834511455 23.0600470411 22.4520242926 23.3140123169 17.8246275765 15.2252182832 19.2946383493 20.5921021258 22.4572529894 22.6671478203 23.4970167068 24.1685307742 27.7748376903 25.7207067833 22.7246634857 23.9832855142 15.4463174644 15.8093384175 14.272848499 16.8797273592 17.4855092376
25.1037205544 25.2575936333 29.5249572231 51.9754876023 53.6046001508 57.0219270235 61.9682742477 51.9344049842 49.7988557975 54.9924456873 50.4591655146 50.034147156 55.5272666798 51.0768987001 47.8119509929 43.0217177176 51.7596171179 51.2897813577 58.3066925363 55.1164404984 51.3682118105 49.8048314511 52.383325957 57.4895219136 51.586323165 49.0541399741 53.3342018278 53.6105758044 52.3556885593 56.2376224953 54.7175656241 54.8318499982 55.6542493177 54.3074863994 52.0217989173 52.0076067402 46.0670601569 39.8785239515 43.1464594854 47.368258717 44.4162858643 44.9765033844 37.1103024454 31.0853497558 27.9623238204 25.5250041296 25.1052144678 25.9836355394 25.433875413 24.9647866095 26.9636427212 29.2239336757 30.6760174878 30.8590218777 31.7493942563 36.4395353347 37.8385852216 33.4405042104 31.433431575 32.1056925991 33.124541529 30.8074818658 29.6967572626 26.1554355789 14.0835570188 3.6919359385 4.8307724659 4.9515759211 6.9691059502 16.5548011976 28.8302874982 31.4521054923 41.5576825984 48.1069988868 37.7870452097 37.2910659652 39.1106524706 48.2548963121 46.6377350707 48.8158607889 52.8897625952 70.4925440337 87.6531271097 87.635200149 84.5480281349 83.4880965868 81.9516066683 75.6637252226 70.6800301637 62.8489361893 49.8638410299 44.0726857853 42.418923666 40.9160467987 41.5442373779 36.5157249174 33.2649693874 30.1748095465 30.8694792714 30.9210192833 30.6020687751 35.3258229047 37.350075544 36.5904205868 36.2692292086 33.5361146671 33.0364006392 29.7131903099 26.2921286538 22.9786287615 23.6284810848 22.3795694933 17.3293952887 17.2606752729 18.4707451163 22.2443703318 26.2898877837 26.9374992369 26.7485191935 29.8431607746 36.0346848068 34.6722357979 30.7118714091 26.5244321854 21.8313032803 21.1881735672 19.6636349558 21.5519414769 24.8213709243
23.3252166673 24.0355724828 39.6970134749 49.4836400729 53.8227115053 53.8742515172 60.5550321836 57.0891531259 48.0778675758 50.2709324278 54.6869403997 54.8154169509 56.3914955742 53.562770576 52.7224442958 51.8260962636 56.8314530666 51.2486987396 48.5290294186 49.0653443245 53.1258009103 55.7887015226 52.5088146815 49.2304217538 53.1795817922 56.9195939565 54.5323203641 54.9349300219 49.0429356237 49.3312609074 51.3293700625 61.1189844872 57.5059549609 54.2664037812 53.1145965599 55.0701291834 42.3330236462 42.6818524221 48.5178250682 45.6121635306 43.5737187141 36.5844449332 34.684187105 30.4818087475 25.6631911179 27.1563575481 33.7348051476 32.1176439062 30.2988043576 30.4205582986 31.6754455437 32.3536822213 32.391030056 31.9510725636 36.1131152596 39.1502411753 39.2906690337 36.6315032049 35.836741283 36.3663335787 35.4625159796 34.9306828138 27.646361139 10.8614972799 6.2469236272 4.6237097435 5.0061037597 5.375847323 11.012382532 30.9479097242 37.4509146976 43.5430934897 50.4860559555 50.4860559555 39.7201691324 44.916746849 45.4448452313 57.1772940157 54.2805959584 63.9589138358 76.5234723768 71.3761938021 91.273626203 91.8009776286 89.7080049734 89.2837335715 91.0547678918 84.5726777058 78.8875903117 66.6845588103 54.0796646079 46.0304592789 46.2328845429 45.5546478652 41.5360208543 39.1547229155 33.1686119739 30.9583671179 33.105120655 31.7919707878 34.508652282 38.1911487809 37.6212208238 37.4322407803 38.1679931234 36.894431961 34.7954836523 32.6024188003 30.3495974127 27.405094127 27.4753080562 27.8995794581 25.4794397713 28.0758612378 28.3447656474 28.3753908719 32.4029813631 35.3669055228 34.0037095572 36.3521414015 39.0770394193 39.3347394786 33.4502146474 27.5014515405 25.8700981219 24.0759081442 26.5938991579 26.9912801189 24.3388369003
23.559761069 26.9337644535 48.1062519301 46.5495941809 45.8713575032 51.2382413459 55.8066284832 55.8178328336 55.0402509157 53.0765017685 51.6953788423 52.1211441576 56.4684321136 56.7067112988 54.8550056557 54.4128072932 61.1182375305 54.6772299627 50.60930381 52.2189954844 54.4045907695 53.8383975959 53.628502765 57.798015028 56.5558260468 51.6542962241 52.8845338983 52.0427137048 50.555522928 50.9252664913 55.4831962349 52.6977947249 48.5656302966 49.6860653368 46.7378272677 40.9100711451 41.7563730789 36.9736093705 41.1782285981 40.1907518493 36.0279621966 34.7536540775 29.4883563452 26.0911973032 27.6134950445 32.3140935166 35.1697089558 33.5884016357 30.5960931216 33.8968947501 35.5730655702 37.6630503986 33.9118338839 33.6541338247 38.890300246 39.1465063918 41.1356520666 40.6068067276 37.4128199063 38.203100088 37.3889172921 34.1411495888 16.241826343 7.2387573165 4.1592583985 3.970479427 6.6650945759 5.1861203228 9.835178783 32.4089570167 43.3593421431 49.3417183011 51.9642832519 45.0736077546 47.9426684142 47.5572387604 51.4705448775 62.9049579413 68.4600748707 89.2075439888 93.4368127873 73.5625360439 97.9364799088 100.718893592 92.6188952079 91.8823959081 92.3694116723 88.137155047 84.6750107728 67.3232067833 52.6948068982 47.3189595752 46.8267151142 46.15221322 44.6836963606 40.5970962906 33.9230382343 35.7949117082 38.4749923244 37.0124511186 39.9181126562 39.9315578767 38.398055785 39.345943829 38.2561340132 38.2195331352 38.7954367459 40.8719763538 34.3981026914 30.92400711 30.7185940193 30.8941288423 36.2109665865 34.0403104352 32.4709544222 34.8388071405 38.4854497181 41.5315391141 40.0152170264 40.8615189601 42.8603750718 41.760854819 33.514452923 34.043298262 31.7008420712 34.1306921951 35.1002419833 32.6382727216 28.9221631715
23.5194254076 27.0151827331 44.3490597619 48.1958867333 50.6137855501 60.3346799591 57.9182750557 49.7062331676 57.2183766339 61.5529663261 57.286349693 56.5408869129 54.0617376472 54.6458577815 57.1847635827 64.8500331711 59.0633596668 55.5743249515 61.3684680228 65.3773845967 63.3994432724 68.3950896384 58.0863403117 54.4060846829 52.6933129848 49.3379835177 50.5054768296 49.9870888843 48.7710433873 45.6973165937 47.443701343 48.1204441073 45.6405478849 41.6943756733 41.9834479137 45.0885468885 37.2342972565 33.9596391123 31.8539681934 30.1404495386 30.5923583381 28.0273090527 28.4127387065 29.9380242746 28.1318829898 30.7776035981 30.699920102 29.1081553882 30.7888079485 30.5535165901 37.2589468274 36.1571857045 34.7723279948 38.6901158521 38.6833932419 38.6012280056 29.4920911286 25.6736485116 37.6406416978 28.5076022066 25.2292092789 26.8172392093 13.5400839827 6.9475552871 4.2384389815 6.8497436832 13.7096431521 5.6044160712 7.7974809232 30.0336347314 45.2401790972 47.7462188039 47.4504239532 47.9755345088 51.4167639956 55.5810475618 59.2613031905 75.5867886832 82.9151808029 105.1147337331 99.5162933155 79.240153871 103.7978490825 109.4642625593 99.5476654966 97.943202519 92.2879933927 84.9991899777 79.2633095285 66.3641143888 56.7052173854 49.5717809627 47.6498613904 43.971099675 39.4512647228 38.8477237144 36.9399963193 40.1967275029 42.1179001185 40.3520944951 44.4498989155 42.8065941899 43.3384273556 43.3361864856 42.0476861893 40.6852371804 44.2818336595 41.3701964683 38.8723732853 35.6993012514 32.8937319107 39.8038282821 44.3796849864 43.4967821747 39.7888891482 40.8458328695 45.9512818694 46.9768534096 51.3054674483 48.9361208166 48.1465875916 46.4808741651 42.8342315875 42.0454453192 39.2144794509 43.7417839701 44.1839823327 33.4068911591 33.8341503878
23.5724593328 23.5717123761 26.2077225474 43.2428168989 52.690325158 52.4184329216 52.8262712762 50.757948192 53.6008653674 59.4726919348 60.5423339199 63.2732075912 57.1914861929 59.8954694233 63.0550962367 68.4003183352 58.7130369775 57.7479689295 54.8490300022 54.4165420766 54.0804115646 53.7024514777 54.1028202654 52.2974259372 51.3711996373 48.837522533 48.1809475995 48.798680785 45.8960070741 40.3737562392 41.3291138502 42.4906315085 45.5934896133 40.6561058694 37.7758408593 39.4348316755 32.1467752173 29.7572607548 27.2288123474 24.9715092197 25.2725327672 25.7812102754 30.6319470429 27.0779270953 25.0252901016 28.5203004704 29.4510085105 29.9716373258 30.4833026609 30.6102852988 37.099098095 35.8016343184 33.0476049896 37.9976869973 43.422833462 19.0645756877 15.1124278225 13.8523118806 17.811182356 13.6394292229 14.6709764166 9.9966033319 9.1957838534 5.5177300881 10.996073568 14.1764910855 12.6429889938 7.8632131123 10.225090177 22.9592078875 49.4933505099 52.5454155595 52.6858434178 55.8260493572 62.6883405002 65.6806490143 72.0305278656 90.4213486157 101.7310199117 112.8651563847 98.4272304564 93.985825957 107.1143368016 110.729607198 105.7855008439 96.0287525136 96.8496579198 93.1223440193 88.8594621696 69.4079629148 61.0308435974 52.5566199099 49.8571184196 40.1235257469 40.3969118967 41.4232303936 44.4185267344 45.1326173334 45.1109555893 43.8142387694 46.2224271492 45.0198268727 46.1843323578 45.891525334 45.7824696567 45.4157139202 46.2239210626 43.0179829341 44.9779972978 46.0267244955 48.2182954341 61.0315905541 62.4933848032 63.6250241938 58.1266759731 51.018636078 61.9988994721 60.6611000341 65.0240740807 61.1533444951 55.2015935615 53.1833165757 47.0336221183 50.7318047077 47.750700544 47.9576075481 46.05959059 40.2811336092 39.782166538
